-20.516,37.069,1.528,159.0,158.0,138.0
-20.513,37.017,1.756,153.0,152.0,132.0
-20.515,37.102,1.734,155.0,154.0,136.0
-20.517,37.13,1.428,159.0,160.0,144.0
-20.515,37.158,1.794,155.0,153.0,138.0
-20.516,37.095,1.45,161.0,157.0,145.0
-20.512,36.89,1.696,154.0,153.0,135.0
-20.514,37.004,1.569,155.0,156.0,138.0
-20.516,37.176,1.648,155.0,156.0,138.0
-20.515,37.007,1.524,158.0,157.0,139.0
-20.516,37.102,1.609,155.0,156.0,140.0
-20.516,37.192,1.712,157.0,154.0,139.0
-20.517,37.247,1.726,156.0,155.0,137.0
-20.513,36.985,1.746,154.0,153.0,135.0
-20.516,37.127,1.665,157.0,156.0,138.0
-20.517,37.297,1.892,155.0,152.0,137.0
-20.517,37.14,1.441,162.0,160.0,147.0
-20.515,37.101,1.741,155.0,153.0,138.0
-20.516,37.213,1.808,153.0,154.0,138.0
-20.516,37.077,1.454,159.0,160.0,144.0
-20.516,37.186,1.722,153.0,154.0,138.0
-20.515,37.043,1.497,157.0,158.0,140.0
-20.515,37.075,1.566,158.0,156.0,141.0
-20.516,37.21,1.843,154.0,152.0,137.0
-20.516,37.131,1.616,154.0,155.0,139.0
-20.514,37.02,1.705,155.0,152.0,135.0
-20.518,37.167,1.419,163.0,162.0,144.0
-20.513,36.96,1.741,155.0,154.0,136.0
-20.516,37.083,1.484,160.0,159.0,141.0
-20.515,37.132,1.822,158.0,152.0,140.0
-20.515,37.073,1.607,157.0,156.0,138.0
-20.516,37.157,1.656,157.0,156.0,138.0
-20.512,36.907,1.683,155.0,154.0,136.0
-20.513,36.934,1.616,157.0,156.0,136.0
-20.514,37.028,1.745,154.0,153.0,135.0
-20.513,37.014,1.789,154.0,153.0,133.0
-20.516,37.133,1.578,157.0,158.0,142.0
-20.516,37.094,1.471,159.0,160.0,144.0
-20.518,37.224,1.583,159.0,156.0,141.0
-20.515,37.03,1.512,159.0,158.0,140.0
-20.515,37.163,1.826,154.0,152.0,137.0
-20.515,37.112,1.71,157.0,154.0,137.0
-20.515,37.071,1.6,157.0,155.0,140.0
-20.517,37.23,1.645,158.0,156.0,143.0
-20.515,37.197,1.86,154.0,152.0,137.0
-20.512,36.931,1.711,154.0,153.0,135.0
-20.517,37.202,1.67,155.0,156.0,140.0
-20.513,37.01,1.726,155.0,154.0,136.0
-20.513,36.999,1.732,154.0,153.0,135.0
-20.513,36.935,1.649,155.0,154.0,134.0
-20.518,37.196,1.506,159.0,160.0,144.0
-20.514,37.099,1.773,153.0,151.0,136.0
-20.516,37.127,1.55,157.0,158.0,140.0
-20.517,37.127,1.381,161.0,162.0,146.0
-20.513,36.975,1.658,157.0,156.0,138.0
-20.517,37.163,1.518,158.0,159.0,143.0
-20.514,36.995,1.655,156.0,155.0,137.0
-20.517,37.204,1.623,155.0,156.0,142.0
-20.513,36.959,1.634,156.0,155.0,135.0
-20.513,36.931,1.666,155.0,154.0,134.0
-20.514,36.997,1.648,157.0,156.0,138.0
-20.514,36.995,1.636,157.0,154.0,137.0
-20.516,37.068,1.507,159.0,158.0,140.0
-20.515,37.024,1.594,158.0,157.0,139.0
-20.517,37.161,1.588,159.0,158.0,140.0
-20.517,37.152,1.5,158.0,159.0,145.0
-20.517,37.153,1.492,159.0,160.0,146.0
-20.515,37.086,1.669,159.0,153.0,139.0
-20.518,37.139,1.358,162.0,163.0,147.0
-20.513,37.009,1.764,154.0,153.0,133.0
-20.515,37.023,1.51,159.0,158.0,140.0
-20.515,37.072,1.695,156.0,155.0,135.0
-20.517,37.264,1.747,156.0,154.0,139.0
-20.516,37.224,1.74,155.0,154.0,136.0
-20.515,37.137,1.81,154.0,152.0,137.0
-20.514,37.039,1.648,154.0,156.0,135.0
-20.512,36.912,1.66,156.0,155.0,135.0
-20.514,37.016,1.584,156.0,157.0,139.0
-20.516,37.205,1.794,153.0,154.0,138.0
-20.517,37.287,1.844,155.0,153.0,140.0
-20.517,37.242,1.733,155.0,154.0,136.0
-20.514,36.982,1.641,156.0,155.0,137.0
-20.515,37.041,1.614,156.0,155.0,135.0
-20.516,37.109,1.557,155.0,156.0,140.0
-20.512,36.924,1.723,154.0,153.0,135.0
-20.514,37.107,1.815,155.0,152.0,137.0
-20.516,37.204,1.746,155.0,153.0,138.0
-20.514,37.071,1.72,153.0,155.0,134.0
-20.516,37.245,1.785,153.0,154.0,138.0
-20.512,36.895,1.684,155.0,154.0,136.0
-20.516,37.161,1.712,157.0,154.0,137.0
-20.517,37.238,1.721,156.0,155.0,137.0
-20.517,37.222,1.59,159.0,158.0,140.0
-20.514,37.051,1.727,153.0,155.0,134.0
-20.517,37.111,1.411,162.0,161.0,143.0
-20.516,37.194,1.719,153.0,154.0,136.0
-20.513,36.938,1.704,154.0,153.0,135.0
-20.515,37.03,1.571,157.0,156.0,138.0
-20.517,37.176,1.625,156.0,157.0,139.0
-20.514,36.978,1.631,157.0,156.0,138.0
-20.515,37.088,1.622,155.0,156.0,138.0
-20.514,37.051,1.793,154.0,153.0,135.0
-20.515,37.09,1.617,155.0,156.0,138.0
-20.514,37.045,1.743,154.0,153.0,133.0
-20.516,37.181,1.698,155.0,156.0,138.0
-20.515,37.053,1.523,158.0,157.0,137.0
-20.513,37.005,1.785,154.0,153.0,133.0
-20.514,37.002,1.635,157.0,154.0,137.0
-20.512,36.904,1.74,154.0,153.0,133.0
-20.517,37.18,1.524,158.0,159.0,141.0
-20.513,36.947,1.732,154.0,153.0,135.0
-20.517,37.143,1.507,158.0,159.0,145.0
-20.515,37.159,1.843,154.0,152.0,137.0
-20.517,37.197,1.612,156.0,157.0,141.0
-20.516,37.102,1.476,161.0,159.0,144.0
-20.514,37.041,1.783,155.0,154.0,134.0
-20.517,37.207,1.687,155.0,156.0,140.0
-20.516,37.145,1.605,158.0,156.0,141.0
-20.516,37.103,1.613,155.0,156.0,138.0
-20.514,37.029,1.632,154.0,157.0,136.0
-20.516,37.192,1.735,156.0,154.0,139.0
-20.513,36.981,1.688,153.0,154.0,136.0
-20.516,37.2,1.787,155.0,153.0,138.0
-20.517,37.153,1.554,159.0,157.0,142.0
-20.513,36.993,1.754,154.0,153.0,133.0
-20.517,37.256,1.706,153.0,154.0,138.0
-20.513,36.953,1.699,155.0,154.0,134.0
-20.513,37.023,1.766,154.0,153.0,133.0
-20.513,36.952,1.728,154.0,153.0,135.0
-20.517,37.13,1.516,157.0,158.0,140.0
-20.517,37.13,1.482,158.0,158.0,146.0
-20.516,37.202,1.701,156.0,154.0,139.0
-20.517,37.169,1.597,156.0,157.0,139.0
-20.514,37.015,1.723,155.0,154.0,136.0
-20.517,37.162,1.582,159.0,158.0,140.0
-20.517,37.191,1.621,155.0,157.0,143.0
-20.517,37.31,1.888,154.0,152.0,137.0
-20.515,37.193,1.837,153.0,154.0,138.0
-20.515,37.053,1.655,154.0,155.0,137.0
-20.516,37.216,1.784,155.0,153.0,138.0
-20.515,37.021,1.535,159.0,158.0,140.0
-20.517,37.231,1.607,158.0,156.0,143.0
-20.516,37.164,1.745,156.0,154.0,139.0
-20.515,37.116,1.668,158.0,155.0,138.0
-20.512,36.926,1.744,153.0,152.0,132.0
-20.516,37.227,1.772,153.0,154.0,138.0
-20.514,37.007,1.676,155.0,154.0,136.0
-20.517,37.155,1.529,158.0,159.0,143.0
-20.516,37.139,1.701,159.0,153.0,139.0
-20.516,37.157,1.602,159.0,158.0,140.0
-20.514,37.005,1.657,157.0,156.0,138.0
-20.516,37.16,1.717,157.0,154.0,137.0
-20.514,37.07,1.763,155.0,152.0,137.0
-20.515,37.143,1.791,155.0,153.0,140.0
-20.517,37.289,1.807,156.0,154.0,141.0
-20.515,37.116,1.797,154.0,152.0,137.0
-20.513,37.002,1.768,154.0,153.0,133.0
-20.518,37.131,1.343,161.0,163.0,149.0
-20.517,37.211,1.624,156.0,157.0,143.0
-20.516,37.08,1.475,159.0,160.0,144.0
-20.515,37.054,1.558,158.0,157.0,139.0
-20.517,37.146,1.442,160.0,161.0,147.0
-20.516,37.203,1.738,155.0,153.0,138.0
-20.514,36.979,1.634,157.0,156.0,138.0
-20.515,37.057,1.634,158.0,157.0,139.0
-20.512,36.9,1.738,154.0,153.0,133.0
-20.515,37.155,1.838,154.0,152.0,137.0
-20.515,37.124,1.805,154.0,151.0,136.0
-20.514,37.008,1.657,156.0,155.0,135.0
-20.516,37.136,1.613,155.0,156.0,140.0
-20.513,37.042,1.803,153.0,155.0,134.0
-20.515,37.051,1.512,160.0,159.0,141.0
-20.517,37.182,1.54,163.0,157.0,143.0
-20.516,37.149,1.691,158.0,155.0,140.0
-20.514,37.031,1.65,153.0,156.0,135.0
-20.513,36.943,1.686,157.0,154.0,135.0
-20.516,37.118,1.554,156.0,157.0,139.0
-20.517,37.118,1.382,161.0,162.0,146.0
-20.515,37.075,1.66,156.0,154.0,139.0
-20.516,37.095,1.573,155.0,156.0,142.0
-20.513,36.95,1.637,157.0,156.0,136.0
-20.516,37.119,1.567,156.0,157.0,141.0
-20.516,37.213,1.843,154.0,152.0,137.0
-20.517,37.286,1.804,156.0,154.0,141.0
-20.518,37.138,1.388,161.0,162.0,148.0
-20.516,37.097,1.513,159.0,158.0,140.0
-20.517,37.214,1.617,156.0,157.0,143.0
-20.513,36.958,1.625,156.0,155.0,135.0
-20.517,37.184,1.617,155.0,157.0,143.0
-20.517,37.222,1.592,160.0,157.0,140.0
-20.515,37.093,1.712,156.0,155.0,137.0
-20.517,37.237,1.668,157.0,155.0,142.0
-20.516,37.186,1.781,157.0,154.0,139.0
-20.517,37.193,1.556,163.0,157.0,143.0
-20.516,37.175,1.716,156.0,155.0,137.0
-20.515,37.155,1.837,154.0,152.0,137.0
-20.514,37.099,1.789,154.0,152.0,137.0
-20.514,37.101,1.795,154.0,152.0,137.0
-20.515,37.077,1.693,155.0,154.0,134.0
-20.517,37.108,1.401,163.0,161.0,146.0
-20.516,37.164,1.677,154.0,155.0,137.0
-20.515,37.077,1.617,156.0,155.0,137.0
-20.516,37.052,1.498,158.0,159.0,141.0
-20.517,37.099,1.422,164.0,161.0,144.0
-20.515,37.091,1.679,156.0,155.0,137.0
-20.516,37.106,1.475,161.0,159.0,144.0
-20.515,37.047,1.578,157.0,156.0,138.0
-20.515,37.078,1.593,157.0,155.0,140.0
-20.517,37.158,1.529,160.0,161.0,145.0
-20.517,37.118,1.496,157.0,158.0,144.0
-20.517,37.183,1.504,158.0,159.0,143.0
-20.514,36.997,1.623,157.0,156.0,138.0
-20.516,37.164,1.681,155.0,156.0,138.0
-20.516,37.134,1.593,154.0,155.0,139.0
-20.514,37.008,1.621,157.0,156.0,136.0
-20.518,37.223,1.577,161.0,158.0,143.0
-20.516,37.223,1.785,154.0,155.0,139.0
-20.516,37.149,1.592,159.0,157.0,142.0
-20.517,37.211,1.694,155.0,156.0,140.0
-20.516,37.248,1.87,154.0,155.0,139.0
-20.516,37.135,1.691,159.0,153.0,139.0
-20.514,37.027,1.623,158.0,156.0,135.0
-20.513,36.958,1.722,154.0,153.0,133.0
-20.516,37.205,1.847,155.0,153.0,138.0
-20.515,37.116,1.755,153.0,154.0,138.0
-20.513,36.971,1.756,154.0,153.0,135.0
-20.516,37.186,1.682,154.0,155.0,139.0
-20.513,36.932,1.652,155.0,154.0,134.0
-20.515,37.08,1.687,155.0,154.0,134.0
-20.514,37.053,1.717,155.0,154.0,134.0
-20.515,37.047,1.518,159.0,158.0,138.0
-20.516,37.082,1.448,159.0,160.0,144.0
-20.512,36.947,1.758,154.0,153.0,135.0
-20.515,37.11,1.742,155.0,153.0,138.0
-20.518,37.142,1.354,162.0,163.0,149.0
-20.517,37.232,1.647,157.0,155.0,142.0
-20.516,37.152,1.604,159.0,157.0,142.0
-20.517,37.137,1.427,159.0,160.0,142.0
-20.515,37.083,1.632,156.0,154.0,139.0
-20.515,37.16,1.804,154.0,152.0,137.0
-20.516,37.126,1.599,156.0,157.0,143.0
-20.514,36.98,1.618,157.0,156.0,136.0
-20.517,37.226,1.592,160.0,157.0,140.0
-20.517,37.272,1.772,156.0,154.0,141.0
-20.513,36.948,1.618,156.0,155.0,135.0
-20.512,36.903,1.697,155.0,154.0,136.0
-20.516,37.176,1.665,155.0,156.0,138.0
-20.517,37.203,1.657,154.0,155.0,139.0
-20.516,37.081,1.45,159.0,160.0,144.0
-20.517,37.186,1.542,161.0,158.0,143.0
-20.512,36.931,1.705,154.0,153.0,135.0
-20.516,37.119,1.565,156.0,157.0,141.0
-20.514,36.995,1.56,155.0,156.0,138.0
-20.515,37.156,1.843,154.0,152.0,137.0
-20.514,37.065,1.779,155.0,153.0,140.0
-20.517,37.287,1.874,152.0,153.0,137.0
-20.517,37.273,1.838,155.0,153.0,138.0
-20.516,37.18,1.673,154.0,157.0,138.0
-20.514,37.039,1.654,155.0,157.0,136.0
-20.517,37.183,1.539,160.0,157.0,142.0
-20.513,36.945,1.661,155.0,154.0,134.0
-20.515,37.072,1.669,157.0,154.0,137.0
-20.513,36.939,1.661,155.0,154.0,134.0
-20.518,37.149,1.399,163.0,162.0,144.0
-20.516,37.09,1.533,158.0,159.0,143.0
-20.513,36.96,1.727,154.0,153.0,135.0
-20.515,37.012,1.527,158.0,157.0,139.0
-20.515,37.008,1.512,159.0,158.0,140.0
-20.515,37.141,1.795,155.0,153.0,140.0
-20.516,37.154,1.616,159.0,158.0,140.0
-20.517,37.261,1.729,156.0,155.0,137.0
-20.516,37.232,1.784,155.0,156.0,138.0
-20.514,36.983,1.582,156.0,157.0,139.0
-20.517,37.269,1.83,155.0,153.0,138.0
-20.515,37.063,1.656,157.0,156.0,138.0
-20.512,36.911,1.697,155.0,154.0,136.0
-20.517,37.112,1.481,157.0,158.0,144.0
-20.517,37.215,1.598,160.0,159.0,141.0
-20.516,37.198,1.689,155.0,156.0,140.0
-20.515,37.146,1.74,156.0,153.0,138.0
-20.517,37.214,1.594,160.0,159.0,141.0
-20.516,37.202,1.769,156.0,153.0,138.0
-20.516,37.198,1.799,153.0,154.0,138.0
-20.517,37.113,1.411,162.0,161.0,143.0
-20.515,37.057,1.525,158.0,157.0,137.0
-20.515,37.134,1.838,155.0,152.0,137.0
-20.514,37.011,1.647,155.0,157.0,136.0
-20.514,36.985,1.567,156.0,157.0,139.0
-20.515,37.098,1.617,155.0,156.0,138.0
-20.516,37.159,1.672,156.0,155.0,137.0
-20.513,36.962,1.724,155.0,154.0,136.0
-20.512,36.939,1.735,153.0,152.0,132.0
-20.514,37.073,1.719,153.0,155.0,134.0
-20.515,37.044,1.498,157.0,158.0,140.0
-20.516,37.214,1.788,155.0,153.0,138.0
-20.516,37.087,1.534,158.0,159.0,143.0
-20.515,37.095,1.613,155.0,156.0,138.0
-20.516,37.165,1.71,156.0,155.0,137.0
-20.515,37.06,1.657,157.0,156.0,138.0
-20.517,37.161,1.492,159.0,160.0,146.0
-20.514,37.078,1.734,154.0,155.0,137.0
-20.516,37.148,1.636,157.0,156.0,138.0
-20.513,36.949,1.646,155.0,154.0,134.0
-20.516,37.187,1.69,156.0,154.0,139.0
-20.516,37.167,1.673,154.0,155.0,137.0
-20.515,37.161,1.816,154.0,152.0,137.0
-20.514,37.016,1.717,157.0,154.0,137.0
-20.512,36.895,1.728,153.0,152.0,132.0
-20.516,37.255,1.813,156.0,153.0,138.0
-20.515,37.005,1.532,157.0,158.0,140.0
-20.517,37.262,1.778,155.0,153.0,138.0
-20.515,37.063,1.647,154.0,155.0,137.0
-20.518,37.155,1.4,164.0,163.0,145.0
-20.513,36.973,1.775,154.0,153.0,133.0
-20.516,37.083,1.551,158.0,156.0,141.0
-20.517,37.253,1.709,154.0,155.0,139.0
-20.518,37.22,1.572,160.0,157.0,142.0
-20.517,37.133,1.392,161.0,162.0,148.0
-20.515,37.064,1.559,158.0,156.0,141.0
-20.513,37.034,1.783,154.0,153.0,133.0
-20.514,37.091,1.788,154.0,152.0,137.0
-20.516,37.177,1.735,153.0,154.0,136.0
-20.518,37.135,1.357,161.0,164.0,147.0
-20.517,37.204,1.611,156.0,157.0,141.0
-20.517,37.154,1.467,159.0,160.0,146.0
-20.517,37.137,1.518,157.0,158.0,144.0
-20.517,37.13,1.42,160.0,161.0,143.0
-20.516,37.208,1.844,156.0,154.0,139.0
-20.516,37.144,1.596,159.0,157.0,142.0
-20.517,37.289,1.876,152.0,153.0,137.0
-20.513,36.981,1.713,154.0,155.0,137.0
-20.515,37.1,1.638,157.0,155.0,140.0
-20.517,37.204,1.621,155.0,156.0,142.0
-20.512,36.928,1.756,153.0,152.0,132.0
-20.516,37.136,1.543,157.0,158.0,144.0
-20.515,37.125,1.812,154.0,151.0,136.0
-20.512,36.946,1.767,154.0,153.0,135.0
-20.516,37.217,1.827,155.0,153.0,138.0
-20.515,37.102,1.73,156.0,155.0,137.0
-20.515,37.073,1.669,157.0,154.0,137.0
-20.516,37.269,1.874,152.0,153.0,137.0
-20.516,37.115,1.535,157.0,158.0,140.0
-20.517,37.197,1.646,155.0,156.0,140.0
-20.513,36.915,1.644,157.0,156.0,136.0
-20.515,37.106,1.719,155.0,154.0,136.0
-20.516,37.203,1.8,153.0,154.0,138.0
-20.514,37.0,1.613,155.0,156.0,138.0
-20.513,36.985,1.775,154.0,153.0,133.0
-20.517,37.179,1.533,157.0,158.0,140.0
-20.512,36.925,1.706,155.0,154.0,136.0
-20.516,37.1,1.58,157.0,158.0,142.0
-20.516,37.178,1.648,155.0,156.0,138.0
-20.516,37.102,1.532,158.0,159.0,141.0
-20.517,37.209,1.66,155.0,156.0,142.0
-20.517,37.224,1.617,156.0,157.0,143.0
-20.516,37.14,1.573,159.0,155.0,143.0
-20.516,37.09,1.564,156.0,157.0,143.0
-20.516,37.172,1.662,155.0,156.0,138.0
-20.518,37.153,1.358,164.0,162.0,149.0
-20.513,36.95,1.661,156.0,155.0,135.0
-20.513,36.967,1.715,156.0,155.0,137.0
-20.517,37.146,1.445,160.0,161.0,147.0
-20.517,37.19,1.523,158.0,159.0,141.0
-20.515,37.172,1.829,153.0,154.0,138.0
-20.513,36.946,1.704,155.0,152.0,133.0
-20.512,36.902,1.718,154.0,153.0,135.0
-20.513,36.916,1.662,156.0,155.0,135.0
-20.512,36.893,1.679,153.0,154.0,136.0
-20.514,37.08,1.794,153.0,154.0,138.0
-20.517,37.249,1.73,155.0,154.0,136.0
-20.515,37.153,1.743,155.0,153.0,138.0
-20.514,36.995,1.578,155.0,156.0,138.0
-20.513,36.964,1.652,156.0,155.0,135.0
-20.516,37.223,1.847,155.0,152.0,137.0
-20.517,37.269,1.749,156.0,154.0,139.0
-20.517,37.126,1.405,161.0,162.0,146.0
-20.514,37.083,1.768,155.0,151.0,139.0
-20.516,37.232,1.849,154.0,151.0,136.0
-20.513,36.96,1.666,156.0,155.0,135.0
-20.517,37.181,1.58,156.0,157.0,141.0
-20.515,37.029,1.527,158.0,157.0,139.0
-20.517,37.172,1.494,159.0,160.0,146.0
-20.516,37.212,1.833,154.0,152.0,137.0
-20.516,37.184,1.763,156.0,152.0,140.0
-20.515,37.163,1.807,154.0,153.0,135.0
-20.513,36.967,1.771,154.0,153.0,133.0
-20.513,36.955,1.611,156.0,155.0,135.0
-20.517,37.164,1.532,158.0,159.0,143.0
-20.514,37.06,1.727,153.0,155.0,134.0
-20.513,36.949,1.661,155.0,154.0,134.0
-20.517,37.261,1.759,156.0,154.0,139.0
-20.516,37.134,1.666,155.0,156.0,138.0
-20.516,37.095,1.555,156.0,157.0,141.0
-20.514,37.035,1.703,156.0,155.0,137.0
-20.517,37.194,1.586,160.0,159.0,141.0
-20.515,37.193,1.854,153.0,151.0,136.0
-20.516,37.122,1.621,155.0,156.0,140.0
-20.515,37.012,1.53,158.0,157.0,139.0
-20.513,36.933,1.687,155.0,154.0,136.0
-20.517,37.166,1.524,158.0,159.0,141.0
-20.515,37.15,1.745,156.0,153.0,138.0
-20.516,37.092,1.497,160.0,159.0,141.0
-20.515,37.175,1.849,152.0,153.0,137.0
-20.516,37.116,1.643,157.0,156.0,138.0
-20.516,37.114,1.561,156.0,157.0,141.0
-20.514,37.059,1.748,155.0,154.0,136.0
-20.517,37.115,1.403,160.0,161.0,145.0
-20.515,37.198,1.851,152.0,150.0,135.0
-20.517,37.2,1.544,162.0,159.0,144.0
-20.515,37.023,1.507,159.0,158.0,140.0
-20.515,37.031,1.515,159.0,158.0,140.0
-20.517,37.198,1.562,160.0,157.0,142.0
-20.517,37.193,1.563,160.0,157.0,142.0
-20.515,37.156,1.831,154.0,152.0,137.0
-20.517,37.222,1.716,154.0,155.0,139.0
-20.514,36.987,1.547,155.0,156.0,138.0
-20.514,36.999,1.633,157.0,154.0,137.0
-20.515,37.056,1.586,157.0,156.0,138.0
-20.517,37.12,1.429,159.0,160.0,142.0
-20.517,37.164,1.486,159.0,159.0,147.0
-20.516,37.227,1.762,156.0,153.0,138.0
-20.514,37.05,1.783,155.0,154.0,136.0
-20.515,37.141,1.72,160.0,152.0,139.0
-20.513,36.953,1.658,156.0,155.0,135.0
-20.517,37.153,1.435,160.0,161.0,147.0
-20.516,37.143,1.609,155.0,156.0,140.0
-20.514,37.073,1.766,155.0,151.0,139.0
-20.518,37.199,1.511,159.0,160.0,144.0
-20.514,37.032,1.675,156.0,155.0,137.0
-20.516,37.143,1.677,157.0,154.0,139.0
-20.515,37.112,1.739,156.0,154.0,139.0
-20.518,37.15,1.36,161.0,162.0,148.0
-20.515,36.997,1.527,158.0,157.0,139.0
-20.515,37.087,1.609,155.0,156.0,138.0
-20.517,37.2,1.635,155.0,156.0,140.0
-20.514,37.005,1.659,157.0,156.0,138.0
-20.514,36.973,1.588,155.0,156.0,138.0
-20.515,37.103,1.668,158.0,155.0,140.0
-20.517,37.287,1.829,155.0,153.0,140.0
-20.515,37.149,1.82,155.0,153.0,138.0
-20.518,37.134,1.375,160.0,163.0,146.0
-20.518,37.141,1.389,161.0,162.0,146.0
-20.514,37.028,1.66,156.0,155.0,135.0
-20.515,37.133,1.768,152.0,155.0,138.0
-20.515,37.141,1.784,155.0,153.0,140.0
-20.517,37.161,1.583,159.0,158.0,140.0
-20.517,37.109,1.376,162.0,163.0,147.0
-20.516,37.153,1.647,158.0,157.0,139.0
-20.517,37.229,1.692,155.0,156.0,140.0
-20.517,37.249,1.681,156.0,157.0,141.0
-20.515,37.063,1.672,157.0,154.0,137.0
-20.512,36.933,1.734,153.0,152.0,132.0
-20.514,36.976,1.643,156.0,155.0,137.0
-20.516,37.1,1.517,159.0,158.0,140.0
-20.516,37.163,1.675,154.0,155.0,137.0
-20.516,37.211,1.764,156.0,153.0,138.0
-20.516,37.206,1.73,153.0,154.0,136.0
-20.513,36.997,1.781,154.0,153.0,133.0
-20.516,37.166,1.682,155.0,156.0,138.0
-20.514,37.051,1.725,153.0,155.0,134.0
-20.517,37.209,1.628,156.0,157.0,143.0
-20.517,37.102,1.443,163.0,157.0,145.0
-20.517,37.265,1.767,155.0,153.0,140.0
-20.516,37.087,1.449,159.0,160.0,146.0
-20.516,37.206,1.731,153.0,154.0,136.0
-20.516,37.193,1.804,150.0,153.0,136.0
-20.515,37.09,1.61,155.0,156.0,138.0
-20.517,37.222,1.614,156.0,157.0,143.0
-20.516,37.218,1.737,155.0,154.0,136.0
-20.517,37.17,1.555,160.0,157.0,142.0
-20.515,37.143,1.84,154.0,152.0,137.0
-20.517,37.269,1.825,155.0,153.0,138.0
-20.517,37.249,1.675,155.0,156.0,140.0
-20.516,37.057,1.514,160.0,159.0,141.0
-20.516,37.164,1.666,156.0,155.0,137.0
-20.516,37.097,1.487,160.0,159.0,141.0
-20.517,37.276,1.763,156.0,154.0,139.0
-20.517,37.222,1.595,159.0,158.0,140.0
-20.515,37.126,1.795,153.0,151.0,136.0
-20.514,37.062,1.703,157.0,156.0,136.0
-20.516,37.09,1.534,158.0,159.0,143.0
-20.515,37.18,1.809,155.0,154.0,136.0
-20.516,37.239,1.802,156.0,153.0,138.0
-20.514,37.075,1.766,155.0,151.0,139.0
-20.513,36.981,1.779,154.0,153.0,133.0
-20.515,37.176,1.818,152.0,153.0,137.0
-20.517,37.238,1.641,157.0,155.0,142.0
-20.517,37.271,1.761,156.0,154.0,139.0
-20.516,37.203,1.737,155.0,153.0,138.0
-20.514,37.036,1.699,157.0,156.0,138.0
-20.516,37.19,1.754,155.0,153.0,140.0
-20.515,37.115,1.707,157.0,154.0,137.0
-20.516,37.12,1.655,157.0,156.0,138.0
-20.515,37.106,1.774,154.0,152.0,137.0
-20.516,37.265,1.881,154.0,152.0,137.0
-20.517,37.099,1.417,164.0,161.0,144.0
-20.516,37.143,1.709,159.0,153.0,139.0
-20.514,36.965,1.591,155.0,156.0,138.0
-20.517,37.215,1.661,157.0,155.0,142.0
-20.516,37.208,1.752,155.0,153.0,138.0
-20.517,37.259,1.726,156.0,155.0,137.0
-20.512,36.943,1.758,154.0,153.0,135.0
-20.515,37.092,1.671,160.0,154.0,140.0
-20.514,37.065,1.768,155.0,152.0,137.0
-20.513,36.99,1.714,154.0,155.0,137.0
-20.516,37.064,1.522,159.0,158.0,138.0
-20.514,37.026,1.715,156.0,153.0,136.0
-20.516,37.167,1.739,155.0,153.0,138.0
-20.517,37.23,1.642,158.0,156.0,143.0
-20.515,37.091,1.7,156.0,155.0,137.0
-20.516,37.159,1.689,157.0,156.0,138.0
-20.517,37.085,1.42,166.0,160.0,144.0
-20.516,37.172,1.63,156.0,157.0,139.0
-20.514,37.055,1.701,155.0,154.0,134.0
-20.515,37.134,1.71,160.0,152.0,139.0
-20.517,37.098,1.411,162.0,161.0,143.0
-20.513,36.953,1.712,154.0,153.0,133.0
-20.514,37.067,1.706,156.0,155.0,135.0
-20.513,36.993,1.756,154.0,153.0,133.0
-20.514,37.072,1.751,155.0,153.0,138.0
-20.514,37.053,1.806,151.0,152.0,134.0
-20.514,37.003,1.621,157.0,156.0,136.0
-20.516,37.22,1.794,155.0,153.0,138.0
-20.516,37.065,1.44,159.0,160.0,144.0
-20.512,36.887,1.744,156.0,153.0,134.0
-20.515,37.17,1.799,154.0,153.0,135.0
-20.517,37.278,1.8,155.0,153.0,140.0
-20.516,37.067,1.484,157.0,158.0,142.0
-20.514,36.995,1.536,157.0,158.0,140.0
-20.517,37.313,1.895,154.0,152.0,137.0
-20.515,37.093,1.721,156.0,155.0,137.0
-20.515,37.119,1.753,153.0,154.0,138.0
-20.516,37.228,1.75,155.0,154.0,136.0
-20.515,37.053,1.651,154.0,155.0,137.0
-20.516,37.06,1.457,158.0,159.0,143.0
-20.514,36.994,1.635,157.0,154.0,137.0
-20.516,37.214,1.836,154.0,152.0,137.0
-20.513,36.924,1.657,156.0,155.0,135.0
-20.515,37.139,1.746,156.0,153.0,138.0
-20.514,37.046,1.662,156.0,153.0,134.0
-20.515,37.11,1.777,154.0,152.0,137.0
-20.515,37.036,1.505,157.0,158.0,140.0
-20.513,36.939,1.605,156.0,155.0,135.0
-20.513,36.934,1.63,157.0,156.0,136.0
-20.516,37.087,1.489,160.0,159.0,141.0
-20.514,37.028,1.614,158.0,155.0,136.0
-20.518,37.144,1.386,161.0,162.0,146.0
-20.516,37.118,1.527,157.0,158.0,140.0
-20.517,37.174,1.557,162.0,156.0,140.0
-20.517,37.12,1.399,161.0,162.0,146.0
-20.518,37.196,1.493,159.0,160.0,144.0
-20.515,37.134,1.803,155.0,152.0,137.0
-20.513,36.945,1.632,157.0,156.0,136.0
-20.513,36.957,1.662,156.0,155.0,135.0
-20.516,37.07,1.451,159.0,160.0,144.0
-20.516,37.16,1.69,157.0,156.0,138.0
-20.517,37.258,1.727,156.0,155.0,137.0
-20.517,37.25,1.697,154.0,155.0,139.0
-20.514,37.031,1.683,156.0,155.0,137.0
-20.512,36.901,1.659,156.0,155.0,137.0
-20.513,36.957,1.709,155.0,154.0,134.0
-20.514,37.013,1.668,157.0,154.0,135.0
-20.517,37.221,1.581,159.0,156.0,141.0
-20.517,37.199,1.608,156.0,157.0,141.0
-20.515,37.125,1.722,157.0,154.0,137.0
-20.513,36.982,1.764,154.0,153.0,135.0
-20.517,37.18,1.541,163.0,157.0,143.0
-20.514,37.053,1.767,155.0,152.0,135.0
-20.512,36.89,1.674,155.0,154.0,134.0
-20.513,37.009,1.749,154.0,153.0,135.0
-20.518,37.171,1.426,160.0,161.0,143.0
-20.513,36.971,1.654,156.0,155.0,135.0
-20.516,37.191,1.713,159.0,153.0,139.0
-20.516,37.242,1.852,155.0,152.0,137.0
-20.516,37.132,1.687,157.0,154.0,137.0
-20.515,37.087,1.627,156.0,154.0,139.0
-20.517,37.173,1.476,158.0,160.0,146.0
-20.516,37.163,1.651,156.0,155.0,137.0
-20.515,37.089,1.593,156.0,157.0,141.0
-20.517,37.251,1.674,155.0,156.0,140.0
-20.517,37.155,1.485,159.0,160.0,146.0
-20.515,37.099,1.722,156.0,155.0,137.0
-20.517,37.14,1.431,159.0,160.0,142.0
-20.516,37.161,1.634,158.0,157.0,139.0
-20.517,37.147,1.565,159.0,157.0,144.0
-20.515,37.135,1.696,159.0,153.0,139.0
-20.513,36.972,1.732,154.0,153.0,135.0
-20.514,37.035,1.686,156.0,155.0,137.0
-20.516,37.2,1.748,155.0,153.0,138.0
-20.513,37.006,1.752,154.0,153.0,133.0
-20.512,36.911,1.675,156.0,155.0,137.0
-20.515,37.039,1.525,159.0,158.0,138.0
-20.514,36.992,1.571,155.0,156.0,138.0
-20.516,37.098,1.534,158.0,159.0,143.0
-20.513,36.94,1.631,157.0,156.0,136.0
-20.515,37.181,1.837,152.0,153.0,137.0
-20.516,37.076,1.456,159.0,160.0,144.0
-20.517,37.269,1.8,155.0,153.0,140.0
-20.516,37.076,1.435,159.0,160.0,144.0
-20.516,37.088,1.584,155.0,156.0,140.0
-20.516,37.1,1.528,159.0,158.0,140.0
-20.514,37.051,1.661,156.0,155.0,137.0
-20.513,37.007,1.732,154.0,153.0,135.0
-20.518,37.141,1.385,161.0,162.0,146.0
-20.516,37.109,1.596,155.0,156.0,140.0
-20.517,37.154,1.54,157.0,158.0,142.0
-20.514,37.111,1.8,155.0,152.0,137.0
-20.515,37.133,1.728,156.0,153.0,136.0
-20.516,37.134,1.605,155.0,156.0,140.0
-20.514,37.106,1.793,154.0,152.0,137.0
-20.514,37.069,1.784,154.0,152.0,139.0
-20.517,37.302,1.89,155.0,152.0,137.0
-20.516,37.195,1.768,156.0,153.0,138.0
-20.516,37.106,1.505,159.0,157.0,142.0
-20.513,36.986,1.753,154.0,153.0,135.0
-20.517,37.211,1.623,156.0,157.0,143.0
-20.517,37.195,1.656,155.0,156.0,140.0
-20.515,37.124,1.74,156.0,154.0,139.0
-20.516,37.206,1.815,153.0,154.0,138.0
-20.516,37.118,1.612,156.0,157.0,141.0
-20.514,37.031,1.739,154.0,153.0,135.0
-20.516,37.077,1.559,158.0,156.0,141.0
-20.517,37.227,1.653,159.0,157.0,144.0
-20.515,37.152,1.81,154.0,152.0,137.0
-20.514,37.016,1.731,155.0,154.0,136.0
-20.514,37.059,1.802,152.0,153.0,137.0
-20.514,36.997,1.574,155.0,156.0,138.0
-20.515,37.06,1.553,158.0,157.0,139.0
-20.515,37.104,1.663,158.0,155.0,140.0
-20.513,36.989,1.777,154.0,153.0,133.0
-20.515,37.113,1.746,155.0,153.0,138.0
-20.515,37.018,1.565,157.0,156.0,138.0
-20.514,36.999,1.577,155.0,156.0,138.0
-20.514,37.021,1.735,154.0,153.0,135.0
-20.515,37.086,1.608,155.0,156.0,138.0
-20.514,36.992,1.672,158.0,155.0,138.0
-20.514,37.093,1.819,157.0,151.0,135.0
-20.515,37.111,1.65,157.0,156.0,138.0
-20.514,37.067,1.713,154.0,156.0,135.0
-20.517,37.202,1.618,155.0,156.0,142.0
-20.516,37.098,1.516,159.0,158.0,140.0
-20.516,37.084,1.543,156.0,157.0,141.0
-20.515,37.124,1.785,155.0,153.0,138.0
-20.516,37.081,1.421,161.0,159.0,146.0
-20.513,36.938,1.606,156.0,155.0,135.0
-20.517,37.158,1.547,160.0,158.0,143.0
-20.517,37.261,1.784,155.0,153.0,138.0
-20.514,36.993,1.539,156.0,157.0,139.0
-20.517,37.166,1.551,160.0,157.0,142.0
-20.514,36.957,1.6,155.0,156.0,138.0
-20.515,37.137,1.834,156.0,153.0,138.0
-20.515,37.082,1.707,154.0,156.0,135.0
-20.516,37.203,1.805,153.0,154.0,138.0
-20.515,37.02,1.537,159.0,158.0,140.0
-20.515,37.132,1.768,152.0,155.0,138.0
-20.513,36.932,1.636,156.0,155.0,135.0
-20.517,37.109,1.416,162.0,161.0,143.0
-20.517,37.148,1.454,159.0,160.0,146.0
-20.515,37.048,1.607,157.0,156.0,136.0
-20.517,37.191,1.549,163.0,157.0,143.0
-20.516,37.287,1.883,154.0,152.0,137.0
-20.516,37.128,1.618,155.0,156.0,140.0
-20.516,37.198,1.768,156.0,153.0,138.0
-20.513,36.977,1.731,155.0,154.0,136.0
-20.516,37.082,1.518,159.0,158.0,138.0
-20.515,37.137,1.706,159.0,153.0,139.0
-20.516,37.148,1.607,158.0,156.0,141.0
-20.512,36.928,1.738,153.0,152.0,132.0
-20.517,37.259,1.723,156.0,155.0,137.0
-20.512,36.886,1.677,153.0,154.0,136.0
-20.516,37.08,1.541,159.0,157.0,142.0
-20.516,37.155,1.613,159.0,158.0,140.0
-20.515,37.179,1.837,152.0,153.0,137.0
-20.517,37.242,1.646,156.0,154.0,141.0
-20.518,37.143,1.328,162.0,163.0,145.0
-20.517,37.196,1.567,160.0,157.0,142.0
-20.515,37.045,1.496,157.0,158.0,140.0
-20.514,36.981,1.621,157.0,156.0,136.0
-20.517,37.19,1.532,159.0,157.0,142.0
-20.517,37.139,1.496,158.0,159.0,143.0
-20.513,36.952,1.61,156.0,155.0,135.0
-20.516,37.189,1.703,157.0,154.0,139.0
-20.517,37.239,1.74,155.0,154.0,136.0
-20.516,37.146,1.675,158.0,155.0,140.0
-20.516,37.108,1.495,157.0,158.0,142.0
-20.515,37.128,1.694,157.0,154.0,137.0
-20.517,37.22,1.694,155.0,156.0,140.0
-20.516,37.187,1.78,157.0,154.0,139.0
-20.513,36.944,1.679,157.0,154.0,135.0
-20.515,37.148,1.75,155.0,153.0,138.0
-20.516,37.057,1.5,158.0,159.0,141.0
-20.516,37.097,1.504,160.0,159.0,141.0
-20.516,37.137,1.589,155.0,156.0,140.0
-20.516,37.04,1.472,158.0,159.0,141.0
-20.515,37.14,1.758,155.0,153.0,138.0
-20.516,37.224,1.797,156.0,154.0,139.0
-20.515,37.072,1.566,158.0,156.0,141.0
-20.514,37.115,1.827,157.0,151.0,137.0
-20.512,36.935,1.752,154.0,153.0,133.0
-20.513,36.943,1.651,156.0,155.0,135.0
-20.516,37.157,1.651,156.0,155.0,137.0
-20.517,37.192,1.66,155.0,156.0,140.0
-20.517,37.137,1.412,163.0,161.0,146.0
-20.515,37.039,1.574,158.0,157.0,139.0
-20.513,36.926,1.653,156.0,155.0,135.0
-20.515,37.069,1.682,156.0,155.0,135.0
-20.516,37.175,1.693,155.0,156.0,138.0
-20.517,37.085,1.407,162.0,161.0,143.0
-20.516,37.262,1.853,152.0,153.0,137.0
-20.517,37.126,1.425,159.0,160.0,142.0
-20.514,36.996,1.547,155.0,156.0,138.0
-20.514,37.011,1.622,157.0,156.0,136.0
-20.513,36.99,1.752,154.0,153.0,135.0
-20.515,37.086,1.661,157.0,154.0,139.0
-20.514,36.978,1.619,157.0,156.0,136.0
-20.515,37.157,1.804,154.0,152.0,137.0
-20.516,37.22,1.846,155.0,152.0,137.0
-20.515,37.073,1.577,158.0,156.0,141.0
-20.515,37.054,1.566,158.0,157.0,139.0
-20.515,37.156,1.795,155.0,153.0,138.0
-20.514,37.06,1.689,157.0,154.0,135.0
-20.512,36.907,1.736,154.0,153.0,133.0
-20.516,37.048,1.48,156.0,157.0,139.0
-20.517,37.134,1.506,157.0,158.0,144.0
-20.515,37.016,1.577,158.0,157.0,139.0
-20.515,37.027,1.553,158.0,157.0,139.0
-20.516,37.23,1.765,156.0,153.0,138.0
-20.517,37.11,1.444,164.0,158.0,144.0
-20.515,37.052,1.604,157.0,156.0,136.0
-20.516,37.138,1.606,155.0,156.0,140.0
-20.516,37.116,1.524,157.0,158.0,140.0
-20.516,37.172,1.649,155.0,156.0,138.0
-20.515,37.098,1.718,156.0,155.0,137.0
-20.517,37.124,1.511,157.0,158.0,142.0
-20.516,37.153,1.715,160.0,154.0,140.0
-20.516,37.177,1.775,155.0,153.0,138.0
-20.516,37.235,1.85,155.0,152.0,137.0
-20.516,37.042,1.465,158.0,159.0,141.0
-20.512,36.947,1.766,154.0,153.0,135.0
-20.518,37.157,1.395,161.0,162.0,144.0
-20.516,37.1,1.522,159.0,158.0,140.0
-20.516,37.191,1.793,154.0,155.0,139.0
-20.515,37.086,1.628,156.0,154.0,139.0
-20.517,37.242,1.723,156.0,155.0,137.0
-20.517,37.122,1.474,158.0,159.0,145.0
-20.516,37.13,1.664,157.0,156.0,138.0
-20.517,37.242,1.691,155.0,156.0,140.0
-20.517,37.251,1.688,155.0,156.0,140.0
-20.516,37.121,1.591,156.0,157.0,143.0
-20.515,37.134,1.836,155.0,152.0,137.0
-20.517,37.214,1.626,158.0,156.0,143.0
-20.514,37.02,1.654,154.0,156.0,135.0
-20.513,36.991,1.697,155.0,156.0,138.0
-20.515,37.066,1.613,157.0,156.0,138.0
-20.513,37.001,1.734,154.0,153.0,135.0
-20.517,37.186,1.545,163.0,157.0,143.0
-20.516,37.091,1.491,160.0,159.0,141.0
-20.516,37.082,1.552,158.0,156.0,141.0
-20.516,37.181,1.697,155.0,156.0,138.0
-20.514,37.092,1.768,154.0,152.0,137.0
-20.516,37.172,1.776,155.0,153.0,138.0
-20.517,37.22,1.598,159.0,158.0,140.0
-20.517,37.188,1.605,157.0,158.0,140.0
-20.518,37.181,1.449,160.0,162.0,141.0
-20.515,37.043,1.588,157.0,156.0,138.0
-20.518,37.188,1.473,159.0,160.0,144.0
-20.516,37.096,1.589,155.0,156.0,140.0
-20.514,37.016,1.612,157.0,156.0,136.0
-20.517,37.245,1.667,157.0,155.0,142.0
-20.517,37.202,1.666,155.0,156.0,140.0
-20.516,37.157,1.733,156.0,154.0,139.0
-20.518,37.162,1.442,160.0,161.0,147.0
-20.514,36.999,1.547,155.0,156.0,138.0
-20.516,37.238,1.81,155.0,152.0,137.0
-20.516,37.13,1.636,156.0,157.0,139.0
-20.517,37.223,1.717,154.0,155.0,139.0
-20.517,37.104,1.405,163.0,161.0,146.0
-20.516,37.164,1.692,156.0,155.0,137.0
-20.517,37.245,1.744,156.0,155.0,137.0
-20.514,37.059,1.746,155.0,154.0,136.0
-20.513,36.969,1.653,156.0,155.0,135.0
-20.514,36.968,1.571,156.0,157.0,139.0
-20.514,37.086,1.743,156.0,154.0,139.0
-20.514,37.029,1.632,154.0,157.0,136.0
-20.517,37.266,1.736,156.0,155.0,137.0
-20.513,36.944,1.679,157.0,154.0,135.0
-20.514,37.092,1.757,154.0,152.0,137.0
-20.513,36.921,1.657,156.0,155.0,135.0
-20.516,37.215,1.731,154.0,155.0,137.0
-20.517,37.225,1.597,158.0,157.0,139.0
-20.515,37.01,1.556,156.0,157.0,139.0
-20.513,36.937,1.655,154.0,153.0,133.0
-20.514,36.984,1.593,155.0,156.0,138.0
-20.516,37.16,1.671,156.0,155.0,137.0
-20.515,37.073,1.705,153.0,155.0,134.0
-20.517,37.231,1.629,158.0,156.0,143.0
-20.517,37.141,1.464,161.0,159.0,146.0
-20.514,37.033,1.741,154.0,153.0,135.0
-20.516,37.292,1.894,155.0,152.0,137.0
-20.515,37.097,1.752,154.0,152.0,137.0
-20.517,37.259,1.812,155.0,153.0,138.0
-20.517,37.129,1.493,158.0,158.0,146.0
-20.516,37.078,1.489,157.0,158.0,142.0
-20.514,37.06,1.695,156.0,155.0,135.0
-20.515,37.111,1.669,158.0,155.0,138.0
-20.516,37.131,1.662,157.0,156.0,138.0
-20.514,36.995,1.549,155.0,156.0,138.0
-20.514,36.996,1.662,156.0,155.0,137.0
-20.516,37.172,1.722,153.0,154.0,136.0
-20.514,36.977,1.573,155.0,156.0,138.0
-20.513,36.951,1.661,156.0,155.0,135.0
-20.517,37.152,1.453,159.0,160.0,146.0
-20.517,37.282,1.792,156.0,154.0,141.0
-20.516,37.169,1.65,155.0,156.0,138.0
-20.512,36.9,1.746,154.0,153.0,133.0
-20.515,37.093,1.61,155.0,156.0,138.0
-20.515,37.125,1.68,158.0,155.0,138.0
-20.516,37.235,1.833,155.0,152.0,137.0
-20.517,37.184,1.517,158.0,159.0,141.0
-20.514,37.069,1.771,154.0,152.0,139.0
-20.516,37.165,1.62,158.0,157.0,139.0
-20.517,37.233,1.619,158.0,156.0,143.0
-20.517,37.211,1.64,156.0,157.0,143.0
-20.518,37.151,1.335,162.0,163.0,145.0
-20.516,37.091,1.506,159.0,158.0,140.0
-20.515,37.105,1.708,155.0,154.0,136.0
-20.515,37.082,1.679,155.0,154.0,134.0
-20.515,37.153,1.838,154.0,152.0,137.0
-20.516,37.127,1.604,155.0,156.0,142.0
-20.514,37.046,1.685,157.0,154.0,135.0
-20.517,37.145,1.482,159.0,160.0,146.0
-20.516,37.21,1.745,155.0,153.0,138.0
-20.515,37.128,1.757,153.0,154.0,138.0
-20.516,37.09,1.471,159.0,160.0,144.0
-20.515,37.026,1.582,155.0,156.0,138.0
-20.512,36.902,1.675,155.0,154.0,136.0
-20.514,36.998,1.587,154.0,157.0,140.0
-20.512,36.882,1.717,154.0,151.0,132.0
-20.516,37.192,1.747,155.0,153.0,140.0
-20.514,37.047,1.723,153.0,154.0,136.0
-20.517,37.25,1.721,156.0,155.0,137.0
-20.513,36.939,1.618,157.0,156.0,136.0
-20.518,37.21,1.544,160.0,158.0,143.0
-20.515,37.135,1.727,158.0,152.0,138.0
-20.515,37.112,1.788,154.0,152.0,137.0
-20.517,37.204,1.592,159.0,158.0,140.0
-20.518,37.163,1.399,163.0,161.0,146.0
-20.514,37.088,1.78,154.0,152.0,137.0
-20.517,37.203,1.567,160.0,157.0,142.0
-20.512,36.888,1.708,154.0,153.0,133.0
-20.512,36.881,1.693,154.0,153.0,135.0
-20.517,37.212,1.621,156.0,157.0,143.0
-20.514,37.006,1.638,156.0,155.0,137.0
-20.514,37.07,1.707,153.0,155.0,134.0
-20.517,37.19,1.631,156.0,157.0,141.0
-20.516,37.066,1.461,159.0,160.0,144.0
-20.517,37.106,1.393,161.0,162.0,146.0
-20.516,37.193,1.69,156.0,154.0,139.0
-20.516,37.092,1.587,155.0,156.0,140.0
-20.513,37.014,1.768,154.0,153.0,133.0
-20.513,37.019,1.771,155.0,154.0,134.0
-20.513,36.97,1.675,155.0,154.0,136.0
-20.517,37.155,1.583,159.0,158.0,140.0
-20.517,37.25,1.751,156.0,154.0,139.0
-20.516,37.283,1.874,152.0,153.0,137.0
-20.517,37.177,1.523,158.0,159.0,141.0
-20.518,37.148,1.322,162.0,163.0,147.0
-20.515,37.146,1.774,155.0,153.0,140.0
-20.517,37.244,1.747,156.0,154.0,139.0
-20.513,36.972,1.77,154.0,153.0,135.0
-20.516,37.216,1.748,155.0,153.0,138.0
-20.515,37.044,1.509,159.0,158.0,140.0
-20.517,37.241,1.735,155.0,154.0,136.0
-20.517,37.166,1.53,158.0,159.0,143.0
-20.515,37.161,1.803,154.0,152.0,137.0
-20.515,37.146,1.749,156.0,153.0,138.0
-20.515,37.105,1.675,156.0,155.0,137.0
-20.517,37.164,1.552,161.0,158.0,143.0
-20.514,37.06,1.779,154.0,152.0,137.0
-20.516,37.182,1.79,155.0,154.0,136.0
-20.518,37.171,1.412,163.0,161.0,146.0
-20.518,37.159,1.432,160.0,161.0,147.0
-20.517,37.134,1.403,164.0,162.0,147.0
-20.513,36.949,1.725,154.0,153.0,135.0
-20.515,37.079,1.648,155.0,156.0,140.0
-20.515,37.07,1.592,157.0,155.0,140.0
-20.517,37.146,1.554,157.0,158.0,144.0
-20.515,37.086,1.613,155.0,156.0,138.0
-20.517,37.28,1.81,155.0,153.0,140.0
-20.517,37.151,1.563,159.0,157.0,142.0
-20.516,37.285,1.889,155.0,152.0,137.0
-20.516,37.07,1.507,159.0,158.0,140.0
-20.515,37.112,1.716,157.0,154.0,137.0
-20.516,37.166,1.708,156.0,155.0,137.0
-20.515,37.053,1.631,158.0,157.0,139.0
-20.515,37.119,1.759,153.0,154.0,138.0
-20.517,37.259,1.741,155.0,154.0,136.0
-20.515,37.035,1.534,159.0,158.0,140.0
-20.517,37.252,1.726,156.0,155.0,137.0
-20.516,37.248,1.867,154.0,155.0,137.0
-20.512,36.923,1.687,155.0,154.0,136.0
-20.513,36.966,1.727,155.0,154.0,136.0
-20.517,37.201,1.623,155.0,156.0,142.0
-20.516,37.187,1.749,155.0,153.0,140.0
-20.512,36.94,1.765,154.0,153.0,133.0
-20.514,37.083,1.795,153.0,154.0,138.0
-20.517,37.266,1.733,156.0,155.0,137.0
-20.515,37.158,1.826,154.0,152.0,137.0
-20.516,37.251,1.802,155.0,153.0,138.0
-20.517,37.288,1.826,155.0,153.0,140.0
-20.514,37.027,1.649,153.0,156.0,135.0
-20.513,36.954,1.637,156.0,155.0,135.0
-20.515,37.08,1.706,154.0,156.0,135.0
-20.517,37.284,1.864,154.0,155.0,139.0
-20.514,37.002,1.633,157.0,154.0,137.0
-20.514,37.033,1.659,156.0,155.0,135.0
-20.516,37.146,1.616,157.0,155.0,140.0
-20.516,37.1,1.511,159.0,158.0,140.0
-20.514,37.056,1.752,154.0,153.0,135.0
-20.514,37.026,1.654,154.0,156.0,135.0
-20.512,36.908,1.703,154.0,153.0,135.0
-20.517,37.294,1.859,155.0,153.0,138.0
-20.516,37.127,1.604,155.0,156.0,142.0
-20.514,36.978,1.568,156.0,157.0,139.0
-20.516,37.065,1.479,159.0,160.0,144.0
-20.517,37.241,1.654,157.0,155.0,142.0
-20.513,36.97,1.729,155.0,154.0,136.0
-20.517,37.218,1.654,157.0,155.0,142.0
-20.517,37.248,1.69,154.0,155.0,139.0
-20.516,37.249,1.863,154.0,155.0,137.0
-20.514,36.975,1.553,155.0,156.0,138.0
-20.518,37.147,1.384,161.0,162.0,146.0
-20.515,37.104,1.664,158.0,155.0,140.0
-20.517,37.083,1.417,164.0,161.0,144.0
-20.517,37.124,1.482,158.0,158.0,146.0
-20.515,37.082,1.58,158.0,156.0,141.0
-20.513,36.974,1.73,155.0,154.0,136.0
-20.513,36.999,1.73,154.0,153.0,135.0
-20.516,37.105,1.588,156.0,157.0,141.0
-20.518,37.152,1.398,163.0,162.0,144.0
-20.514,37.004,1.613,157.0,156.0,138.0
-20.516,37.211,1.795,153.0,154.0,138.0
-20.516,37.148,1.606,158.0,156.0,141.0
-20.516,37.165,1.666,156.0,155.0,137.0
-20.517,37.146,1.492,158.0,159.0,145.0
-20.514,37.068,1.712,156.0,155.0,135.0
-20.515,37.076,1.57,158.0,156.0,141.0
-20.515,37.118,1.66,157.0,156.0,138.0
-20.514,37.026,1.659,156.0,155.0,135.0
-20.515,37.031,1.583,155.0,156.0,138.0
-20.516,37.17,1.634,156.0,157.0,139.0
-20.517,37.249,1.755,156.0,154.0,139.0
-20.516,37.19,1.779,156.0,154.0,139.0
-20.515,37.136,1.805,154.0,152.0,137.0
-20.515,37.164,1.791,154.0,152.0,137.0
-20.513,36.975,1.754,154.0,153.0,135.0
-20.514,36.993,1.536,156.0,157.0,139.0
-20.514,37.06,1.729,153.0,155.0,134.0
-20.517,37.265,1.749,156.0,154.0,139.0
-20.514,37.012,1.609,158.0,157.0,137.0
-20.517,37.133,1.476,161.0,159.0,146.0
-20.516,37.098,1.466,161.0,159.0,144.0
-20.514,37.053,1.776,155.0,154.0,136.0
-20.517,37.16,1.557,160.0,157.0,142.0
-20.516,37.201,1.817,152.0,153.0,137.0
-20.517,37.134,1.457,161.0,159.0,146.0
-20.515,37.109,1.739,155.0,153.0,138.0
-20.517,37.256,1.704,153.0,154.0,138.0
-20.515,37.132,1.71,157.0,154.0,137.0
-20.514,37.064,1.699,157.0,156.0,136.0
-20.517,37.127,1.489,158.0,158.0,146.0
-20.516,37.129,1.676,158.0,155.0,138.0
-20.517,37.153,1.551,159.0,157.0,142.0
-20.516,37.128,1.593,155.0,156.0,142.0
-20.517,37.186,1.573,159.0,157.0,142.0
-20.517,37.132,1.43,159.0,160.0,144.0
-20.517,37.309,1.897,155.0,152.0,137.0
-20.517,37.217,1.645,158.0,156.0,143.0
-20.517,37.115,1.46,165.0,159.0,147.0
-20.515,37.089,1.735,155.0,154.0,136.0
-20.515,37.148,1.774,155.0,153.0,140.0
-20.515,37.09,1.638,156.0,154.0,139.0
-20.516,37.211,1.792,153.0,154.0,138.0
-20.517,37.162,1.54,160.0,158.0,143.0
-20.513,36.953,1.668,156.0,155.0,135.0
-20.513,36.944,1.607,156.0,155.0,135.0
-20.515,37.19,1.828,153.0,154.0,138.0
-20.516,37.188,1.691,156.0,154.0,139.0
-20.516,37.148,1.652,157.0,156.0,138.0
-20.513,36.988,1.687,153.0,154.0,136.0
-20.516,37.22,1.845,155.0,152.0,137.0
-20.517,37.198,1.622,154.0,156.0,142.0
-20.516,37.132,1.627,154.0,155.0,137.0
-20.517,37.098,1.434,161.0,157.0,145.0
-20.515,37.091,1.739,155.0,153.0,138.0
-20.515,37.086,1.593,156.0,157.0,141.0
-20.515,37.061,1.565,158.0,157.0,139.0
-20.515,37.116,1.656,157.0,156.0,138.0
-20.516,37.119,1.578,156.0,157.0,143.0
-20.515,37.186,1.813,151.0,154.0,137.0
-20.516,37.125,1.639,155.0,156.0,138.0
-20.517,37.125,1.439,162.0,160.0,145.0
-20.518,37.142,1.396,161.0,162.0,146.0
-20.515,37.164,1.81,154.0,153.0,135.0
-20.517,37.17,1.574,159.0,157.0,142.0
-20.515,37.062,1.618,158.0,157.0,137.0
-20.516,37.092,1.577,156.0,157.0,141.0
-20.514,37.072,1.77,154.0,152.0,139.0
-20.513,36.979,1.747,154.0,153.0,135.0
-20.514,37.056,1.683,156.0,153.0,134.0
-20.516,37.14,1.559,157.0,158.0,144.0
-20.515,37.036,1.483,157.0,158.0,142.0
-20.515,37.027,1.492,158.0,157.0,139.0
-20.515,37.087,1.64,158.0,155.0,140.0
-20.515,37.107,1.76,154.0,152.0,137.0
-20.512,36.879,1.686,152.0,153.0,135.0
-20.515,37.025,1.597,158.0,157.0,137.0
-20.517,37.153,1.509,159.0,160.0,144.0
-20.515,37.039,1.583,157.0,156.0,138.0
-20.515,37.128,1.682,157.0,154.0,137.0
-20.512,36.911,1.714,154.0,153.0,135.0
-20.517,37.284,1.802,156.0,154.0,141.0
-20.516,37.238,1.834,155.0,152.0,137.0
-20.517,37.129,1.498,158.0,159.0,145.0
-20.515,37.128,1.804,155.0,152.0,137.0
-20.518,37.175,1.458,159.0,161.0,147.0
-20.516,37.117,1.508,157.0,158.0,142.0
-20.513,37.036,1.789,155.0,154.0,134.0
-20.517,37.204,1.55,159.0,157.0,142.0
-20.518,37.149,1.357,161.0,162.0,148.0
-20.515,37.068,1.621,157.0,156.0,138.0
-20.516,37.145,1.67,155.0,156.0,138.0
-20.516,37.166,1.63,158.0,157.0,139.0
-20.515,37.05,1.528,159.0,158.0,138.0
-20.515,37.129,1.758,153.0,154.0,138.0
-20.514,37.108,1.795,154.0,152.0,137.0
-20.515,37.137,1.812,155.0,153.0,138.0
-20.513,36.979,1.762,154.0,153.0,135.0
-20.513,36.957,1.61,156.0,155.0,135.0
-20.515,37.037,1.59,157.0,156.0,138.0
-20.517,37.236,1.636,157.0,155.0,142.0
-20.517,37.125,1.436,160.0,161.0,145.0
-20.515,37.098,1.624,155.0,156.0,138.0
-20.514,36.961,1.591,155.0,156.0,138.0
-20.512,36.924,1.706,155.0,154.0,136.0
-20.516,37.217,1.844,154.0,152.0,137.0
-20.514,37.028,1.75,154.0,153.0,133.0
-20.513,36.979,1.665,156.0,155.0,137.0
-20.516,37.289,1.896,155.0,152.0,137.0
-20.514,37.112,1.8,156.0,153.0,138.0
-20.517,37.211,1.685,155.0,156.0,140.0
-20.521,37.296,0.973,166.0,168.0,157.0
-20.518,37.343,0.988,168.0,169.0,161.0
-20.519,37.316,0.992,170.0,167.0,160.0
-20.515,37.457,0.858,173.0,177.0,162.0
-20.516,37.332,1.065,166.0,169.0,158.0
-20.518,37.283,1.084,167.0,167.0,155.0
-20.516,37.464,0.829,181.0,182.0,168.0
-20.518,37.333,1.002,169.0,169.0,159.0
-20.52,37.327,0.936,168.0,169.0,161.0
-20.517,37.244,1.173,165.0,165.0,153.0
-20.519,37.4,0.841,177.0,179.0,165.0
-20.515,37.404,0.952,169.0,173.0,159.0
-20.522,37.357,0.824,171.0,174.0,157.0
-20.516,37.381,0.965,169.0,171.0,160.0
-20.517,37.417,0.861,174.0,176.0,162.0
-20.518,37.203,1.233,164.0,164.0,152.0
-20.52,37.245,1.074,166.0,166.0,154.0
-20.521,37.324,0.9,168.0,170.0,157.0
-20.517,37.381,0.931,169.0,171.0,160.0
-20.519,37.204,1.195,165.0,165.0,157.0
-20.518,37.398,0.881,172.0,174.0,161.0
-20.521,37.286,0.992,168.0,168.0,158.0
-20.52,37.206,1.156,167.0,168.0,154.0
-20.519,37.275,1.048,167.0,167.0,155.0
-20.519,37.377,0.87,172.0,174.0,161.0
-20.516,37.408,0.927,169.0,171.0,160.0
-20.522,37.297,0.915,169.0,169.0,157.0
-20.514,37.451,0.92,170.0,172.0,161.0
-20.518,37.398,0.872,173.0,175.0,162.0
-20.513,37.495,0.867,173.0,175.0,162.0
-20.513,37.513,0.836,175.0,175.0,163.0
-20.515,37.387,0.996,168.0,170.0,159.0
-20.52,37.333,0.927,169.0,171.0,160.0
-20.516,37.404,0.925,169.0,171.0,160.0
-20.521,37.29,0.977,169.0,169.0,159.0
-20.518,37.349,0.973,169.0,169.0,161.0
-20.522,37.319,0.875,171.0,173.0,159.0
-20.518,37.272,1.1,169.0,166.0,159.0
-20.52,37.302,0.975,166.0,168.0,157.0
-20.519,37.406,0.842,177.0,180.0,163.0
-20.517,37.288,1.111,167.0,167.0,155.0
-20.513,37.509,0.829,174.0,176.0,163.0
-20.518,37.295,1.069,168.0,168.0,158.0
-20.52,37.353,0.898,169.0,171.0,160.0
-20.517,37.405,0.88,173.0,175.0,162.0
-20.52,37.362,0.882,172.0,174.0,161.0
-20.515,37.473,0.845,177.0,179.0,166.0
-20.522,37.304,0.924,168.0,170.0,157.0
-20.521,37.283,0.991,168.0,168.0,156.0
-20.523,37.289,0.918,169.0,169.0,157.0
-20.519,37.365,0.909,169.0,171.0,160.0
-20.517,37.314,1.043,168.0,168.0,158.0
-20.522,37.344,0.84,177.0,180.0,159.0
-20.517,37.419,0.863,174.0,176.0,162.0
-20.516,37.354,1.007,169.0,169.0,159.0
-20.52,37.217,1.147,166.0,166.0,156.0
-20.52,37.386,0.827,181.0,182.0,164.0
-20.518,37.278,1.079,167.0,167.0,155.0
-20.517,37.248,1.185,165.0,167.0,154.0
-20.519,37.295,1.035,168.0,168.0,158.0
-20.514,37.501,0.828,175.0,179.0,164.0
-20.52,37.309,0.964,168.0,170.0,159.0
-20.518,37.298,1.043,167.0,167.0,157.0
-20.519,37.36,0.908,169.0,171.0,160.0
-20.519,37.248,1.107,169.0,166.0,157.0
-20.516,37.27,1.157,166.0,166.0,156.0
-20.516,37.283,1.139,169.0,165.0,156.0
-20.521,37.26,1.035,168.0,169.0,155.0
-20.52,37.37,0.866,172.0,174.0,161.0
-20.521,37.347,0.874,171.0,173.0,160.0
-20.52,37.262,1.043,167.0,168.0,154.0
-20.519,37.331,0.954,165.0,171.0,161.0
-20.518,37.28,1.094,167.0,167.0,157.0
-20.519,37.316,0.988,172.0,169.0,162.0
-20.521,37.359,0.85,175.0,176.0,168.0
-20.519,37.3,1.002,168.0,168.0,158.0
-20.516,37.393,0.938,169.0,171.0,160.0
-20.519,37.394,0.84,175.0,177.0,164.0
-20.518,37.231,1.164,166.0,166.0,154.0
-20.515,37.468,0.835,179.0,181.0,167.0
-20.519,37.276,1.072,167.0,167.0,155.0
-20.52,37.24,1.089,167.0,167.0,157.0
-20.52,37.295,0.997,168.0,168.0,158.0
-20.519,37.223,1.155,166.0,166.0,154.0
-20.517,37.233,1.187,167.0,167.0,155.0
-20.517,37.218,1.222,165.0,166.0,152.0
-20.519,37.294,1.028,168.0,168.0,158.0
-20.516,37.285,1.128,169.0,166.0,157.0
-20.519,37.351,0.914,168.0,170.0,159.0
-20.513,37.515,0.838,174.0,174.0,162.0
-20.515,37.377,1.015,170.0,170.0,160.0
-20.521,37.254,1.033,168.0,169.0,155.0
-20.517,37.41,0.874,172.0,174.0,161.0
-20.517,37.34,1.003,170.0,170.0,160.0
-20.521,37.358,0.859,173.0,175.0,162.0
-20.517,37.374,0.933,168.0,170.0,159.0
-20.52,37.333,0.916,169.0,171.0,160.0
-20.519,37.199,1.211,164.0,164.0,154.0
-20.515,37.403,0.957,169.0,173.0,159.0
-20.518,37.311,1.034,168.0,168.0,158.0
-20.523,37.299,0.896,169.0,171.0,158.0
-20.517,37.385,0.915,168.0,170.0,159.0
-20.516,37.336,1.053,171.0,168.0,159.0
-20.518,37.225,1.179,165.0,165.0,153.0
-20.517,37.383,0.929,169.0,171.0,160.0
-20.515,37.369,1.01,170.0,170.0,160.0
-20.52,37.302,0.976,166.0,168.0,157.0
-20.518,37.328,0.991,170.0,170.0,162.0
-20.519,37.204,1.202,165.0,165.0,157.0
-20.52,37.225,1.126,168.0,166.0,154.0
-20.52,37.253,1.071,167.0,167.0,155.0
-20.519,37.331,0.975,168.0,169.0,161.0
-20.519,37.385,0.872,173.0,175.0,162.0
-20.521,37.312,0.928,168.0,170.0,159.0
-20.517,37.317,1.042,168.0,168.0,158.0
-20.516,37.45,0.835,181.0,183.0,169.0
-20.516,37.432,0.878,172.0,174.0,161.0
-20.519,37.235,1.134,168.0,166.0,154.0
-20.519,37.205,1.195,165.0,165.0,157.0
-20.52,37.255,1.068,167.0,168.0,154.0
-20.516,37.445,0.841,178.0,180.0,167.0
-20.517,37.34,1.0,170.0,170.0,160.0
-20.521,37.26,1.02,168.0,168.0,156.0
-20.518,37.191,1.248,163.0,165.0,152.0
-20.515,37.428,0.922,170.0,172.0,161.0
-20.516,37.437,0.879,171.0,175.0,161.0
-20.519,37.2,1.187,165.0,165.0,153.0
-20.518,37.159,1.292,165.0,160.0,154.0
-20.518,37.286,1.064,167.0,167.0,155.0
-20.517,37.309,1.053,167.0,167.0,157.0
-20.518,37.347,0.962,168.0,169.0,161.0
-20.519,37.348,0.927,171.0,171.0,161.0
-20.517,37.436,0.838,179.0,181.0,167.0
-20.521,37.284,0.967,167.0,169.0,156.0
-20.518,37.265,1.1,169.0,166.0,157.0
-20.522,37.31,0.901,169.0,169.0,157.0
-20.513,37.47,0.897,170.0,174.0,159.0
-20.517,37.336,1.002,169.0,169.0,159.0
-20.515,37.401,0.976,169.0,173.0,159.0
-20.521,37.312,0.932,168.0,170.0,159.0
-20.52,37.275,1.038,168.0,168.0,156.0
-20.521,37.278,1.003,168.0,168.0,156.0
-20.523,37.299,0.891,169.0,171.0,158.0
-20.52,37.349,0.885,170.0,172.0,159.0
-20.516,37.269,1.16,168.0,165.0,156.0
-20.513,37.459,0.909,170.0,173.0,164.0
-20.52,37.255,1.072,168.0,168.0,156.0
-20.516,37.418,0.914,170.0,172.0,161.0
-20.518,37.259,1.126,169.0,166.0,157.0
-20.523,37.338,0.83,176.0,179.0,158.0
-20.516,37.425,0.884,171.0,173.0,160.0
-20.52,37.229,1.128,168.0,166.0,154.0
-20.516,37.425,0.893,171.0,173.0,162.0
-20.517,37.298,1.092,167.0,167.0,157.0
-20.515,37.447,0.886,170.0,174.0,160.0
-20.519,37.27,1.062,167.0,167.0,155.0
-20.516,37.308,1.112,167.0,167.0,157.0
-20.52,37.275,1.015,168.0,168.0,156.0
-20.518,37.233,1.169,166.0,166.0,154.0
-20.521,37.368,0.826,176.0,177.0,159.0
-20.518,37.188,1.236,164.0,164.0,152.0
-20.523,37.276,0.941,167.0,169.0,158.0
-20.518,37.403,0.858,174.0,176.0,163.0
-20.517,37.352,1.004,169.0,169.0,159.0
-20.516,37.427,0.873,173.0,175.0,162.0
-20.517,37.233,1.204,167.0,165.0,153.0
-20.518,37.268,1.12,169.0,166.0,157.0
-20.519,37.362,0.901,169.0,171.0,160.0
-20.523,37.309,0.879,170.0,172.0,158.0
-20.518,37.404,0.853,175.0,177.0,164.0
-20.516,37.276,1.141,170.0,165.0,159.0
-20.518,37.366,0.925,168.0,170.0,159.0
-20.514,37.443,0.932,170.0,171.0,163.0
-20.518,37.417,0.841,177.0,179.0,165.0
-20.517,37.241,1.18,166.0,166.0,154.0
-20.516,37.365,0.984,170.0,170.0,160.0
-20.516,37.427,0.888,171.0,173.0,162.0
-20.522,37.262,0.989,168.0,168.0,156.0
-20.516,37.458,0.824,182.0,183.0,169.0
-20.519,37.263,1.077,167.0,167.0,155.0
-20.521,37.316,0.914,167.0,169.0,158.0
-20.523,37.308,0.882,170.0,172.0,158.0
-20.517,37.313,1.045,168.0,168.0,158.0
-20.52,37.375,0.858,174.0,176.0,163.0
-20.522,37.31,0.917,169.0,169.0,157.0
-20.52,37.221,1.111,165.0,165.0,153.0
-20.519,37.218,1.172,165.0,165.0,155.0
