-15.328,37.651,0.847,174.0,175.0,159.0
-15.321,37.617,1.167,175.0,175.0,165.0
-15.325,37.261,1.136,171.0,169.0,154.0
-15.324,37.599,1.031,177.0,177.0,167.0
-15.319,37.567,1.272,172.0,172.0,160.0
-15.321,37.639,1.157,176.0,176.0,166.0
-15.319,37.393,1.32,169.0,170.0,156.0
-15.318,37.501,1.329,169.0,170.0,156.0
-15.325,37.505,1.034,176.0,176.0,164.0
-15.318,37.553,1.298,172.0,172.0,160.0
-15.327,37.57,0.916,175.0,177.0,164.0
-15.324,37.328,1.13,174.0,175.0,161.0
-15.321,37.522,1.22,171.0,173.0,162.0
-15.322,37.515,1.162,175.0,176.0,162.0
-15.326,37.566,0.959,174.0,178.0,164.0
-15.324,37.552,1.047,176.0,176.0,166.0
-15.319,37.548,1.263,172.0,172.0,160.0
-15.323,37.473,1.149,173.0,174.0,160.0
-15.321,37.674,1.131,175.0,177.0,166.0
-15.324,37.712,1.001,177.0,177.0,167.0
-15.327,37.561,0.931,175.0,177.0,164.0
-15.321,37.58,1.18,175.0,175.0,167.0
-15.317,37.649,1.309,175.0,173.0,158.0
-15.328,37.683,0.826,174.0,175.0,157.0
-15.323,37.573,1.089,176.0,176.0,166.0
-15.321,37.488,1.194,171.0,175.0,161.0
-15.325,37.34,1.109,174.0,174.0,164.0
-15.321,37.416,1.238,170.0,172.0,159.0
-15.324,37.481,1.104,173.0,173.0,163.0
-15.327,37.736,0.869,175.0,176.0,162.0
-15.323,37.521,1.104,176.0,176.0,166.0
-15.323,37.487,1.132,174.0,174.0,164.0
-15.32,37.511,1.265,174.0,172.0,159.0
-15.317,37.569,1.371,169.0,170.0,156.0
-15.324,37.676,1.004,178.0,178.0,170.0
-15.319,37.455,1.326,169.0,170.0,156.0
-15.32,37.578,1.216,175.0,175.0,165.0
-15.325,37.501,1.015,176.0,176.0,164.0
-15.323,37.56,1.087,176.0,176.0,166.0
-15.327,37.755,0.875,176.0,177.0,163.0
-15.322,37.32,1.235,170.0,170.0,158.0
-15.32,37.524,1.231,171.0,173.0,162.0
-15.322,37.325,1.228,172.0,173.0,157.0
-15.32,37.348,1.292,169.0,170.0,152.0
-15.318,37.509,1.322,171.0,169.0,156.0
-15.321,37.31,1.288,168.0,169.0,153.0
-15.323,37.218,1.22,167.0,165.0,152.0
-15.324,37.161,1.222,165.0,164.0,143.0
-15.318,37.579,1.314,171.0,171.0,159.0
-15.326,37.587,0.942,176.0,176.0,164.0
-15.318,37.672,1.285,174.0,174.0,162.0
-15.324,37.618,1.045,177.0,177.0,165.0
-15.324,37.717,1.006,177.0,177.0,167.0
-15.322,37.376,1.222,171.0,172.0,158.0
-15.316,37.619,1.386,169.0,170.0,156.0
-15.322,37.422,1.178,173.0,174.0,160.0
-15.317,37.66,1.335,172.0,173.0,159.0
-15.325,37.45,1.071,174.0,174.0,162.0
-15.318,37.527,1.345,170.0,171.0,157.0
-15.325,37.693,0.983,176.0,178.0,165.0
-15.321,37.334,1.269,169.0,170.0,154.0
-15.324,37.225,1.201,168.0,167.0,149.0
-15.323,37.506,1.101,175.0,175.0,165.0
-15.321,37.292,1.278,172.0,170.0,157.0
-15.322,37.482,1.182,173.0,175.0,164.0
-15.317,37.651,1.321,174.0,172.0,157.0
-15.326,37.413,1.015,177.0,175.0,163.0
-15.319,37.575,1.273,172.0,172.0,162.0
-15.322,37.653,1.088,177.0,177.0,165.0
-15.328,37.765,0.827,176.0,177.0,159.0
-15.322,37.322,1.251,170.0,171.0,157.0
-15.318,37.621,1.284,174.0,174.0,162.0
-15.326,37.599,0.95,177.0,177.0,165.0
-15.318,37.636,1.292,172.0,173.0,159.0
-15.323,37.191,1.247,165.0,163.0,148.0
-15.328,37.607,0.885,174.0,177.0,160.0
-15.319,37.662,1.251,173.0,173.0,163.0
-15.329,37.758,0.77,177.0,178.0,162.0
-15.321,37.498,1.195,173.0,175.0,164.0
-15.318,37.534,1.322,170.0,170.0,158.0
-15.326,37.512,1.008,177.0,177.0,165.0
-15.325,37.579,1.01,177.0,177.0,165.0
-15.324,37.564,1.039,176.0,176.0,164.0
-15.323,37.537,1.099,176.0,176.0,166.0
-15.317,37.635,1.313,172.0,173.0,157.0
-15.328,37.768,0.788,176.0,177.0,161.0
-15.32,37.482,1.272,173.0,171.0,159.0
-15.326,37.627,0.937,174.0,178.0,164.0
-15.319,37.577,1.278,172.0,172.0,160.0
-15.319,37.56,1.256,174.0,174.0,164.0
-15.321,37.374,1.243,170.0,170.0,158.0
-15.326,37.737,0.899,176.0,177.0,163.0
-15.324,37.21,1.201,168.0,167.0,149.0
-15.325,37.333,1.117,173.0,173.0,161.0
-15.327,37.607,0.93,173.0,177.0,163.0
-15.322,37.508,1.155,174.0,175.0,161.0
-15.329,37.758,0.79,176.0,177.0,161.0
-15.323,37.275,1.212,169.0,170.0,154.0
-15.319,37.66,1.254,173.0,173.0,163.0
-15.322,37.509,1.17,173.0,175.0,162.0
-15.324,37.258,1.156,169.0,167.0,152.0
-15.324,37.222,1.192,166.0,167.0,149.0
-15.322,37.235,1.26,169.0,166.0,151.0
-15.32,37.404,1.269,169.0,170.0,156.0
-15.325,37.672,0.99,178.0,178.0,166.0
-15.327,37.666,0.871,176.0,177.0,161.0
-15.325,37.716,0.96,177.0,177.0,169.0
-15.318,37.648,1.271,174.0,174.0,162.0
-15.327,37.734,0.863,175.0,176.0,160.0
-15.326,37.612,0.96,176.0,178.0,165.0
-15.327,37.525,0.945,175.0,177.0,166.0
-15.319,37.519,1.273,174.0,172.0,159.0
-15.321,37.468,1.236,172.0,172.0,160.0
-15.32,37.564,1.231,173.0,174.0,166.0
-15.326,37.717,0.895,176.0,177.0,163.0
-15.326,37.483,1.018,179.0,177.0,164.0
-15.322,37.685,1.117,176.0,178.0,167.0
-15.317,37.591,1.337,170.0,171.0,157.0
-15.327,37.581,0.933,176.0,178.0,165.0
-15.316,37.624,1.363,170.0,171.0,157.0
-15.324,37.599,1.023,177.0,177.0,167.0
-15.322,37.557,1.152,175.0,175.0,163.0
-15.324,37.542,1.057,176.0,176.0,168.0
-15.32,37.638,1.211,175.0,175.0,165.0
-15.318,37.663,1.267,173.0,173.0,161.0
-15.328,37.683,0.827,174.0,175.0,157.0
-15.317,37.596,1.343,170.0,171.0,157.0
-15.321,37.338,1.271,169.0,170.0,154.0
-15.325,37.522,1.037,178.0,178.0,166.0
-15.324,37.354,1.114,174.0,174.0,162.0
-15.317,37.53,1.356,169.0,170.0,156.0
-15.323,37.484,1.113,174.0,174.0,164.0
-15.321,37.504,1.208,173.0,173.0,161.0
-15.327,37.549,0.928,175.0,177.0,164.0
-15.324,37.698,1.022,179.0,179.0,167.0
-15.327,37.518,0.941,175.0,177.0,166.0
-15.32,37.334,1.299,168.0,169.0,151.0
-15.323,37.625,1.08,176.0,176.0,164.0
-15.323,37.595,1.105,176.0,176.0,164.0
-15.327,37.58,0.92,175.0,177.0,164.0
-15.324,37.304,1.14,173.0,173.0,161.0
-15.328,37.615,0.876,174.0,177.0,160.0
-15.324,37.282,1.181,173.0,171.0,158.0
-15.32,37.447,1.278,171.0,171.0,159.0
-15.328,37.695,0.837,175.0,176.0,158.0
-15.323,37.61,1.067,175.0,175.0,163.0
-15.325,37.562,1.004,177.0,177.0,165.0
-15.325,37.631,0.984,177.0,177.0,165.0
-15.326,37.69,0.94,175.0,179.0,165.0
-15.321,37.439,1.225,171.0,173.0,162.0
-15.326,37.538,0.981,176.0,176.0,166.0
-15.323,37.401,1.179,173.0,174.0,160.0
-15.324,37.569,1.033,176.0,176.0,164.0
-15.325,37.321,1.106,173.0,173.0,161.0
-15.324,37.411,1.107,175.0,175.0,163.0
-15.323,37.424,1.143,172.0,174.0,160.0
-15.326,37.407,1.034,178.0,176.0,164.0
-15.329,37.737,0.785,175.0,176.0,160.0
-15.325,37.593,1.004,176.0,178.0,167.0
-15.327,37.531,0.953,175.0,177.0,164.0
-15.324,37.708,1.006,177.0,177.0,167.0
-15.323,37.509,1.1,175.0,175.0,165.0
-15.317,37.608,1.357,171.0,172.0,158.0
-15.323,37.247,1.226,170.0,166.0,154.0
-15.32,37.377,1.305,168.0,169.0,151.0
-15.322,37.519,1.16,175.0,176.0,162.0
-15.322,37.693,1.078,177.0,177.0,167.0
-15.326,37.703,0.901,176.0,177.0,163.0
-15.321,37.298,1.294,167.0,168.0,150.0
-15.318,37.541,1.323,170.0,172.0,159.0
-15.319,37.653,1.256,176.0,176.0,166.0
-15.326,37.547,0.963,175.0,177.0,164.0
-15.325,37.56,0.999,177.0,177.0,165.0
-15.32,37.663,1.171,176.0,176.0,164.0
-15.325,37.686,0.955,174.0,177.0,166.0
-15.322,37.702,1.094,177.0,177.0,167.0
-15.323,37.485,1.127,174.0,174.0,164.0
-15.322,37.283,1.261,168.0,169.0,155.0
-15.32,37.59,1.221,174.0,174.0,166.0
-15.322,37.317,1.25,170.0,171.0,157.0
-15.323,37.608,1.069,175.0,175.0,163.0
-15.324,37.151,1.208,166.0,165.0,144.0
-15.327,37.51,0.948,175.0,177.0,166.0
-15.326,37.548,0.968,175.0,177.0,164.0
-15.325,37.46,1.032,177.0,174.0,165.0
-15.325,37.371,1.073,174.0,174.0,162.0
-15.326,37.582,0.971,173.0,179.0,165.0
-15.32,37.553,1.23,173.0,175.0,164.0
-15.326,37.472,1.004,176.0,176.0,164.0
-15.32,37.423,1.263,169.0,170.0,156.0
-15.325,37.666,0.971,176.0,178.0,165.0
-15.32,37.45,1.278,171.0,172.0,158.0
-15.324,37.489,1.08,175.0,175.0,163.0
-15.325,37.655,0.994,176.0,178.0,167.0
-15.322,37.563,1.159,176.0,176.0,164.0
-15.327,37.524,0.96,176.0,177.0,163.0
-15.321,37.684,1.149,176.0,178.0,167.0
-15.322,37.46,1.163,174.0,175.0,161.0
-15.327,37.697,0.896,176.0,177.0,163.0
-15.327,37.731,0.861,176.0,177.0,161.0
-15.327,37.613,0.903,174.0,176.0,162.0
-15.324,37.217,1.176,169.0,168.0,150.0
-15.32,37.598,1.213,175.0,175.0,165.0
-15.323,37.211,1.238,168.0,164.0,153.0
-15.327,37.598,0.896,175.0,177.0,163.0
-15.325,37.62,1.01,178.0,178.0,168.0
-15.326,37.63,0.957,175.0,177.0,164.0
-15.325,37.334,1.088,173.0,174.0,160.0
-15.322,37.299,1.255,168.0,169.0,155.0
-15.325,37.684,0.95,175.0,178.0,167.0
-15.323,37.516,1.106,175.0,177.0,166.0
-15.323,37.72,1.03,179.0,179.0,167.0
-15.326,37.605,0.936,175.0,179.0,165.0
-15.322,37.578,1.119,176.0,176.0,166.0
-15.317,37.623,1.322,172.0,173.0,157.0
-15.321,37.475,1.199,171.0,175.0,161.0
-15.327,37.497,0.971,176.0,176.0,164.0
-15.323,37.197,1.236,166.0,164.0,151.0
-15.329,37.76,0.787,176.0,177.0,161.0
-15.318,37.522,1.336,170.0,171.0,157.0
-15.328,37.696,0.83,175.0,176.0,158.0
-15.322,37.441,1.197,172.0,172.0,160.0
-15.323,37.664,1.049,178.0,178.0,166.0
-15.319,37.571,1.258,174.0,174.0,164.0
-15.32,37.457,1.269,172.0,169.0,160.0
-15.325,37.591,1.01,178.0,178.0,168.0
-15.326,37.527,0.985,176.0,176.0,166.0
-15.324,37.209,1.174,169.0,168.0,150.0
-15.322,37.641,1.106,175.0,177.0,166.0
-15.326,37.696,0.942,175.0,179.0,165.0
-15.326,37.585,0.96,174.0,178.0,164.0
-15.323,37.343,1.182,173.0,171.0,159.0
-15.325,37.68,0.977,176.0,178.0,165.0
-15.326,37.421,1.018,177.0,175.0,163.0
-15.327,37.607,0.912,175.0,177.0,166.0
-15.325,37.7,0.971,176.0,177.0,169.0
-15.317,37.541,1.348,169.0,170.0,156.0
-15.323,37.359,1.194,174.0,172.0,159.0
-15.324,37.446,1.081,175.0,175.0,163.0
-15.322,37.369,1.234,171.0,171.0,159.0
-15.325,37.678,0.965,175.0,178.0,167.0
-15.324,37.176,1.218,167.0,166.0,146.0
-15.324,37.192,1.198,169.0,166.0,149.0
-15.323,37.378,1.173,171.0,172.0,158.0
-15.322,37.386,1.219,173.0,173.0,161.0
-15.325,37.34,1.079,175.0,173.0,161.0
-15.322,37.468,1.179,175.0,175.0,163.0
-15.324,37.373,1.112,174.0,174.0,162.0
-15.323,37.41,1.151,174.0,175.0,161.0
-15.323,37.509,1.117,174.0,176.0,165.0
-15.325,37.364,1.071,174.0,174.0,162.0
-15.323,37.522,1.098,176.0,176.0,166.0
-15.321,37.33,1.29,168.0,169.0,151.0
-15.319,37.558,1.264,172.0,172.0,160.0
-15.322,37.244,1.265,168.0,166.0,151.0
-15.325,37.47,1.049,175.0,175.0,163.0
-15.321,37.29,1.279,168.0,166.0,153.0
-15.32,37.49,1.246,173.0,174.0,160.0
-15.32,37.66,1.178,174.0,174.0,162.0
-15.325,37.36,1.101,174.0,174.0,162.0
-15.318,37.473,1.33,169.0,170.0,156.0
-15.326,37.675,0.947,176.0,179.0,168.0
-15.324,37.55,1.072,178.0,175.0,166.0
-15.323,37.174,1.246,165.0,164.0,144.0
-15.327,37.582,0.942,176.0,176.0,164.0
-15.322,37.594,1.121,177.0,177.0,167.0
-15.323,37.583,1.099,177.0,177.0,167.0
-15.319,37.416,1.303,170.0,171.0,157.0
-15.319,37.571,1.257,174.0,174.0,164.0
-15.325,37.457,1.047,176.0,176.0,164.0
-15.324,37.631,1.04,177.0,177.0,165.0
-15.328,37.617,0.882,175.0,178.0,161.0
-15.324,37.191,1.199,169.0,166.0,149.0
-15.325,37.631,0.997,176.0,178.0,167.0
-15.319,37.429,1.298,170.0,171.0,157.0
-15.324,37.482,1.073,175.0,175.0,163.0
-15.322,37.378,1.217,173.0,174.0,160.0
-15.321,37.297,1.278,171.0,169.0,156.0
-15.322,37.555,1.124,176.0,176.0,166.0
-15.322,37.401,1.215,172.0,172.0,160.0
-15.324,37.719,0.999,177.0,177.0,167.0
-15.32,37.486,1.243,173.0,174.0,160.0
-15.32,37.428,1.289,170.0,171.0,157.0
-15.323,37.431,1.136,172.0,174.0,160.0
-15.326,37.679,0.907,176.0,176.0,164.0
-15.324,37.664,1.027,178.0,178.0,168.0
-15.319,37.425,1.31,169.0,170.0,156.0
-15.319,37.437,1.313,169.0,170.0,156.0
-15.324,37.465,1.091,175.0,175.0,165.0
-15.32,37.373,1.31,168.0,169.0,153.0
-15.319,37.621,1.241,173.0,175.0,164.0
-15.321,37.416,1.226,172.0,172.0,162.0
-15.323,37.572,1.093,177.0,177.0,167.0
-15.321,37.497,1.229,171.0,173.0,160.0
-15.325,37.707,0.981,177.0,177.0,167.0
-15.325,37.689,0.981,176.0,178.0,167.0
-15.324,37.609,1.053,177.0,177.0,165.0
-15.327,37.549,0.941,176.0,176.0,164.0
-15.319,37.547,1.282,171.0,171.0,159.0
-15.32,37.637,1.216,175.0,175.0,165.0
-15.325,37.568,1.011,177.0,177.0,165.0
-15.325,37.697,0.973,176.0,178.0,167.0
-15.318,37.478,1.352,168.0,169.0,153.0
-15.321,37.503,1.186,173.0,174.0,166.0
-15.328,37.683,0.833,175.0,176.0,158.0
-15.325,37.597,1.019,177.0,177.0,167.0
-15.32,37.641,1.196,174.0,176.0,163.0
-15.325,37.711,0.951,175.0,177.0,166.0
-15.317,37.522,1.349,169.0,170.0,156.0
-15.326,37.426,1.015,176.0,174.0,162.0
-15.327,37.509,0.954,175.0,177.0,164.0
-15.319,37.565,1.254,174.0,174.0,164.0
-15.323,37.666,1.044,177.0,177.0,165.0
-15.321,37.39,1.268,170.0,171.0,155.0
-15.316,37.652,1.371,170.0,171.0,157.0
-15.324,37.227,1.193,166.0,167.0,149.0
-15.322,37.642,1.126,175.0,177.0,166.0
-15.319,37.462,1.323,169.0,170.0,156.0
-15.322,37.648,1.103,177.0,177.0,167.0
-15.32,37.525,1.242,171.0,171.0,161.0
-15.318,37.625,1.271,175.0,175.0,165.0
-15.322,37.317,1.212,170.0,171.0,157.0
-15.324,37.233,1.165,167.0,168.0,150.0
-15.322,37.623,1.107,177.0,177.0,165.0
-15.323,37.415,1.146,173.0,175.0,161.0
-15.325,37.524,1.033,176.0,176.0,164.0
-15.319,37.506,1.304,172.0,170.0,157.0
-15.318,37.625,1.277,172.0,172.0,160.0
-15.326,37.43,1.035,178.0,176.0,164.0
-15.32,37.36,1.297,169.0,170.0,152.0
-15.319,37.681,1.213,174.0,176.0,165.0
-15.323,37.494,1.126,174.0,174.0,164.0
-15.326,37.485,0.982,177.0,177.0,167.0
-15.325,37.561,1.035,176.0,176.0,164.0
-15.32,37.554,1.248,174.0,174.0,164.0
-15.323,37.335,1.173,172.0,173.0,157.0
-15.323,37.253,1.229,172.0,168.0,156.0
-15.32,37.49,1.263,173.0,171.0,158.0
-15.322,37.594,1.137,176.0,176.0,166.0
-15.325,37.657,0.988,176.0,178.0,165.0
-15.323,37.63,1.063,177.0,177.0,165.0
-15.323,37.714,1.024,179.0,179.0,167.0
-15.321,37.696,1.126,176.0,177.0,169.0
-15.324,37.155,1.221,164.0,163.0,142.0
-15.319,37.508,1.303,173.0,171.0,158.0
-15.327,37.631,0.907,174.0,176.0,163.0
-15.322,37.286,1.257,168.0,169.0,155.0
-15.321,37.629,1.159,176.0,176.0,166.0
-15.327,37.54,0.951,175.0,177.0,164.0
-15.326,37.732,0.891,177.0,178.0,162.0
-15.325,37.293,1.12,173.0,174.0,160.0
-15.326,37.648,0.958,175.0,178.0,167.0
-15.326,37.404,1.03,178.0,176.0,164.0
-15.325,37.74,0.964,177.0,178.0,170.0
-15.315,37.647,1.407,169.0,170.0,156.0
-15.319,37.548,1.266,172.0,172.0,160.0
-15.326,37.496,0.978,177.0,177.0,165.0
-15.32,37.557,1.228,173.0,173.0,165.0
-15.326,37.688,0.908,177.0,178.0,164.0
-15.316,37.63,1.382,169.0,170.0,154.0
-15.321,37.295,1.288,168.0,167.0,149.0
-15.326,37.374,1.052,175.0,175.0,163.0
-15.324,37.131,1.224,164.0,163.0,135.0
-15.328,37.72,0.816,175.0,176.0,158.0
-15.322,37.405,1.185,170.0,174.0,159.0
-15.321,37.674,1.158,176.0,176.0,166.0
-15.323,37.676,1.076,179.0,177.0,165.0
-15.322,37.604,1.126,176.0,176.0,166.0
-15.324,37.169,1.192,169.0,166.0,147.0
-15.322,37.582,1.115,176.0,176.0,166.0
-15.318,37.673,1.285,174.0,174.0,162.0
-15.323,37.244,1.197,167.0,168.0,150.0
-15.323,37.726,1.036,179.0,179.0,167.0
-15.321,37.386,1.25,171.0,172.0,158.0
-15.322,37.659,1.105,176.0,178.0,167.0
-15.323,37.467,1.117,174.0,174.0,164.0
-15.319,37.43,1.3,170.0,171.0,157.0
-15.318,37.495,1.33,169.0,170.0,156.0
-15.322,37.548,1.15,174.0,176.0,165.0
-15.324,37.165,1.208,166.0,165.0,145.0
-15.32,37.373,1.299,168.0,169.0,151.0
-15.319,37.459,1.307,170.0,171.0,157.0
-15.317,37.642,1.307,173.0,174.0,160.0
-15.327,37.516,0.964,176.0,177.0,163.0
-15.322,37.717,1.075,178.0,178.0,168.0
-15.318,37.55,1.303,171.0,171.0,159.0
-15.322,37.613,1.103,178.0,178.0,166.0
-15.32,37.413,1.277,169.0,170.0,156.0
-15.323,37.561,1.08,179.0,177.0,165.0
-15.327,37.603,0.926,174.0,177.0,166.0
-15.321,37.543,1.199,175.0,175.0,163.0
-15.324,37.615,1.016,178.0,178.0,168.0
-15.319,37.443,1.295,170.0,170.0,158.0
-15.325,37.646,0.978,177.0,177.0,165.0
-15.325,37.398,1.067,175.0,173.0,161.0
-15.327,37.607,0.9,174.0,176.0,162.0
-15.327,37.49,0.966,176.0,176.0,164.0
-15.317,37.641,1.317,174.0,172.0,157.0
-15.317,37.654,1.322,174.0,172.0,157.0
-15.322,37.522,1.152,175.0,176.0,162.0
-15.327,37.625,0.912,174.0,176.0,165.0
-15.325,37.377,1.099,173.0,173.0,161.0
-15.325,37.647,0.994,176.0,178.0,167.0
-15.322,37.54,1.16,176.0,177.0,163.0
-15.324,37.268,1.149,174.0,172.0,157.0
-15.326,37.713,0.908,176.0,177.0,163.0
-15.325,37.596,1.022,177.0,177.0,167.0
-15.323,37.625,1.092,175.0,175.0,163.0
-15.327,37.544,0.926,175.0,177.0,164.0
-15.328,37.693,0.829,175.0,176.0,158.0
-15.323,37.17,1.252,165.0,164.0,144.0
-15.327,37.521,0.953,175.0,177.0,164.0
-15.326,37.416,1.039,176.0,176.0,164.0
-15.323,37.262,1.191,171.0,169.0,154.0
-15.32,37.616,1.217,175.0,175.0,165.0
-15.324,37.67,1.019,177.0,177.0,169.0
-15.322,37.435,1.207,171.0,173.0,160.0
-15.316,37.621,1.361,170.0,171.0,157.0
-15.327,37.672,0.884,175.0,176.0,160.0
-15.322,37.455,1.169,174.0,175.0,161.0
-15.323,37.481,1.146,173.0,174.0,160.0
-15.32,37.382,1.296,169.0,170.0,152.0
-15.322,37.659,1.104,178.0,178.0,168.0
-15.322,37.38,1.214,172.0,173.0,159.0
-15.323,37.723,1.06,179.0,179.0,167.0
-15.329,37.757,0.778,176.0,177.0,161.0
-15.327,37.732,0.862,176.0,177.0,161.0
-15.327,37.585,0.902,173.0,175.0,162.0
-15.327,37.66,0.892,176.0,177.0,161.0
-15.323,37.46,1.158,174.0,175.0,159.0
-15.321,37.314,1.285,168.0,169.0,153.0
-15.322,37.463,1.174,174.0,174.0,162.0
-15.321,37.663,1.144,176.0,176.0,164.0
-15.328,37.719,0.848,175.0,176.0,160.0
-15.319,37.43,1.327,169.0,170.0,156.0
-15.329,37.692,0.815,174.0,175.0,157.0
-15.317,37.625,1.326,171.0,172.0,158.0
-15.327,37.604,0.91,175.0,177.0,164.0
-15.318,37.616,1.296,173.0,173.0,161.0
-15.322,37.666,1.121,176.0,178.0,167.0
-15.324,37.237,1.185,166.0,168.0,147.0
-15.317,37.647,1.341,171.0,172.0,158.0
-15.317,37.602,1.332,171.0,172.0,158.0
-15.323,37.677,1.071,179.0,177.0,165.0
-15.323,37.372,1.163,172.0,173.0,159.0
-15.319,37.676,1.234,174.0,176.0,165.0
-15.323,37.382,1.151,173.0,174.0,160.0
-15.316,37.604,1.384,169.0,170.0,156.0
-15.319,37.469,1.314,170.0,171.0,157.0
-15.321,37.481,1.2,171.0,175.0,161.0
-15.318,37.537,1.319,171.0,171.0,159.0
-15.321,37.686,1.156,176.0,176.0,166.0
-15.323,37.464,1.149,174.0,175.0,161.0
-15.319,37.557,1.291,171.0,171.0,159.0
-15.326,37.433,1.03,177.0,175.0,163.0
-15.324,37.482,1.07,174.0,174.0,162.0
-15.327,37.743,0.867,175.0,176.0,162.0
-15.326,37.373,1.057,177.0,175.0,163.0
-15.328,37.679,0.826,174.0,175.0,157.0
-15.32,37.523,1.234,173.0,173.0,163.0
-15.324,37.525,1.058,176.0,176.0,168.0
-15.323,37.537,1.088,176.0,176.0,166.0
-15.324,37.707,0.987,177.0,177.0,165.0
-15.319,37.541,1.261,174.0,172.0,160.0
-15.325,37.731,0.952,177.0,177.0,167.0
-15.324,37.239,1.167,167.0,168.0,150.0
-15.322,37.628,1.097,176.0,176.0,164.0
-15.323,37.429,1.131,173.0,173.0,163.0
-15.328,37.742,0.806,176.0,177.0,159.0
-15.323,37.309,1.189,169.0,171.0,158.0
-15.326,37.466,0.995,176.0,176.0,166.0
-15.323,37.283,1.187,170.0,171.0,155.0
-15.323,37.232,1.237,169.0,165.0,153.0
-15.325,37.526,1.041,177.0,177.0,165.0
-15.324,37.345,1.139,174.0,174.0,162.0
-15.323,37.585,1.103,177.0,177.0,167.0
-15.326,37.684,0.943,175.0,178.0,167.0
-15.325,37.482,1.059,174.0,174.0,162.0
-15.324,37.511,1.079,177.0,177.0,165.0
-15.321,37.37,1.234,171.0,171.0,159.0
-15.322,37.317,1.216,171.0,172.0,156.0
-15.322,37.235,1.255,169.0,166.0,151.0
-15.327,37.465,0.979,177.0,177.0,165.0
-15.327,37.664,0.891,176.0,177.0,161.0
-15.328,37.767,0.812,177.0,178.0,160.0
-15.323,37.359,1.177,172.0,173.0,159.0
-15.316,37.611,1.376,170.0,171.0,157.0
-15.315,37.652,1.397,169.0,170.0,156.0
-15.325,37.272,1.126,173.0,174.0,160.0
-15.318,37.531,1.322,170.0,170.0,158.0
-15.323,37.185,1.253,165.0,163.0,148.0
-15.321,37.62,1.168,175.0,175.0,165.0
-15.326,37.709,0.924,176.0,178.0,165.0
-15.328,37.676,0.842,174.0,175.0,157.0
-15.32,37.358,1.299,168.0,169.0,151.0
-15.319,37.397,1.322,169.0,170.0,156.0
-15.322,37.668,1.096,178.0,178.0,166.0
-15.326,37.706,0.917,177.0,178.0,164.0
-15.319,37.661,1.248,174.0,174.0,164.0
-15.321,37.298,1.286,177.0,175.0,160.0
-15.325,37.466,1.048,175.0,175.0,163.0
-15.322,37.336,1.238,170.0,170.0,158.0
-15.325,37.645,0.992,176.0,178.0,165.0
-15.322,37.439,1.188,173.0,174.0,160.0
-15.322,37.57,1.141,175.0,177.0,166.0
-15.318,37.668,1.268,173.0,173.0,161.0
-15.322,37.419,1.194,170.0,172.0,159.0
-15.319,37.456,1.318,169.0,170.0,156.0
-15.32,37.385,1.274,170.0,171.0,155.0
-15.323,37.321,1.201,171.0,172.0,158.0
-15.325,37.37,1.065,175.0,173.0,161.0
-15.321,37.293,1.281,166.0,164.0,149.0
-15.323,37.72,1.053,179.0,179.0,167.0
-15.323,37.432,1.15,173.0,175.0,161.0
-15.326,37.452,1.014,179.0,177.0,164.0
-15.326,37.478,0.982,177.0,177.0,167.0
-15.324,37.488,1.096,175.0,175.0,165.0
-15.323,37.355,1.165,173.0,174.0,160.0
-15.326,37.436,1.03,177.0,175.0,163.0
-15.318,37.565,1.308,171.0,171.0,159.0
-15.324,37.481,1.099,175.0,175.0,165.0
-15.325,37.728,0.973,177.0,177.0,167.0
-15.327,37.666,0.88,175.0,176.0,160.0
-15.323,37.574,1.077,178.0,176.0,164.0
-15.318,37.593,1.296,172.0,172.0,160.0
-15.323,37.451,1.158,173.0,174.0,158.0
-15.321,37.303,1.28,170.0,168.0,155.0
-15.322,37.438,1.177,173.0,174.0,160.0
-15.319,37.398,1.312,169.0,170.0,154.0
-15.317,37.53,1.37,169.0,170.0,156.0
-15.321,37.498,1.222,173.0,173.0,161.0
-15.322,37.684,1.096,178.0,178.0,166.0
-15.326,37.631,0.96,176.0,178.0,165.0
-15.32,37.55,1.241,173.0,175.0,164.0
-15.325,37.637,0.972,177.0,177.0,165.0
-15.327,37.561,0.943,176.0,176.0,164.0
-15.321,37.349,1.249,170.0,171.0,157.0
-15.325,37.626,1.01,178.0,178.0,168.0
-15.323,37.42,1.15,173.0,175.0,161.0
-15.322,37.405,1.202,169.0,171.0,158.0
-15.321,37.653,1.153,178.0,176.0,164.0
-15.321,37.377,1.24,172.0,172.0,160.0
-15.323,37.309,1.174,172.0,173.0,157.0
-15.32,37.376,1.292,169.0,170.0,154.0
-15.325,37.217,1.155,169.0,168.0,150.0
-15.324,37.427,1.101,174.0,174.0,162.0
-15.326,37.674,0.942,173.0,179.0,167.0
-15.325,37.484,1.061,175.0,175.0,163.0
-15.321,37.389,1.256,171.0,172.0,158.0
-15.321,37.635,1.173,176.0,173.0,164.0
-15.318,37.471,1.325,169.0,170.0,156.0
-15.32,37.402,1.281,170.0,171.0,155.0
-15.32,37.522,1.248,172.0,172.0,160.0
-15.323,37.199,1.234,166.0,164.0,151.0
-15.326,37.704,0.91,176.0,177.0,163.0
-15.321,37.541,1.181,175.0,175.0,163.0
-15.318,37.619,1.285,174.0,174.0,162.0
-15.321,37.531,1.201,175.0,175.0,165.0
-15.323,37.66,1.078,176.0,176.0,164.0
-15.324,37.483,1.086,175.0,175.0,165.0
-15.325,37.562,0.997,177.0,177.0,165.0
-15.32,37.422,1.29,170.0,171.0,157.0
-15.323,37.717,1.045,179.0,179.0,167.0
-15.316,37.614,1.384,169.0,170.0,156.0
-15.325,37.617,1.003,176.0,178.0,167.0
-15.321,37.334,1.264,169.0,170.0,154.0
-15.328,37.749,0.811,176.0,177.0,159.0
-15.324,37.224,1.185,166.0,168.0,147.0
-15.325,37.52,1.046,177.0,177.0,167.0
-15.317,37.584,1.338,170.0,171.0,157.0
-15.32,37.43,1.27,171.0,171.0,159.0
-15.322,37.244,1.278,168.0,166.0,151.0
-15.324,37.707,1.004,177.0,177.0,167.0
-15.316,37.565,1.382,168.0,169.0,155.0
-15.322,37.392,1.192,172.0,172.0,160.0
-15.317,37.571,1.337,170.0,171.0,157.0
-15.317,37.562,1.34,170.0,171.0,157.0
-15.324,37.293,1.157,175.0,173.0,160.0
-15.328,37.773,0.796,176.0,177.0,159.0
-15.321,37.703,1.138,175.0,177.0,166.0
-15.324,37.116,1.235,163.0,161.0,138.0
-15.325,37.257,1.145,170.0,168.0,153.0
-15.319,37.613,1.267,173.0,173.0,163.0
-15.321,37.355,1.252,169.0,170.0,154.0
-15.327,37.509,0.962,176.0,177.0,163.0
-15.322,37.536,1.16,176.0,177.0,163.0
-15.322,37.386,1.214,173.0,173.0,161.0
-15.322,37.303,1.236,169.0,170.0,156.0
-15.324,37.133,1.226,164.0,163.0,135.0
-15.327,37.695,0.863,175.0,176.0,160.0
-15.325,37.487,1.034,178.0,175.0,166.0
-15.325,37.366,1.089,174.0,175.0,161.0
-15.322,37.515,1.177,173.0,175.0,164.0
-15.323,37.463,1.156,174.0,175.0,159.0
-15.323,37.302,1.203,170.0,172.0,158.0
-15.317,37.519,1.361,168.0,169.0,155.0
-15.323,37.665,1.068,177.0,177.0,165.0
-15.325,37.497,1.041,175.0,176.0,162.0
-15.319,37.523,1.263,173.0,171.0,159.0
-15.324,37.19,1.209,167.0,166.0,148.0
-15.329,37.725,0.796,175.0,176.0,158.0
-15.323,37.497,1.115,174.0,176.0,165.0
-15.327,37.629,0.895,175.0,177.0,163.0
-15.317,37.552,1.351,170.0,171.0,157.0
-15.323,37.316,1.202,171.0,172.0,158.0
-15.321,37.433,1.225,171.0,173.0,162.0
-15.325,37.656,0.96,175.0,178.0,167.0
-15.325,37.548,1.031,176.0,176.0,164.0
-15.327,37.655,0.904,175.0,177.0,163.0
-15.318,37.592,1.292,172.0,172.0,160.0
-15.324,37.441,1.095,175.0,175.0,163.0
-15.324,37.417,1.13,174.0,174.0,164.0
-15.32,37.572,1.208,175.0,175.0,163.0
-15.321,37.667,1.128,175.0,177.0,166.0
-15.327,37.734,0.861,176.0,177.0,161.0
-15.325,37.483,1.06,174.0,174.0,162.0
-15.326,37.465,1.019,178.0,176.0,164.0
-15.322,37.347,1.239,169.0,170.0,156.0
-15.323,37.63,1.066,177.0,177.0,165.0
-15.324,37.526,1.069,176.0,176.0,168.0
-15.323,37.657,1.081,175.0,177.0,164.0
-15.325,37.649,1.001,177.0,179.0,168.0
-15.326,37.715,0.91,176.0,177.0,163.0
-15.328,37.705,0.824,174.0,175.0,157.0
-15.323,37.34,1.194,174.0,172.0,159.0
-15.318,37.672,1.272,174.0,174.0,162.0
-15.323,37.52,1.107,175.0,177.0,166.0
-15.318,37.492,1.358,168.0,169.0,153.0
-15.325,37.622,1.005,176.0,178.0,167.0
-15.325,37.321,1.107,172.0,172.0,160.0
-15.323,37.431,1.145,172.0,174.0,160.0
-15.327,37.508,0.951,175.0,177.0,164.0
-15.324,37.56,1.052,176.0,176.0,166.0
-15.327,37.759,0.85,176.0,177.0,161.0
-15.325,37.533,1.018,177.0,177.0,165.0
-15.323,37.408,1.177,173.0,174.0,160.0
-15.323,37.335,1.195,171.0,172.0,158.0
-15.347,37.7,0.175,75.0,104.0,100.0
-15.336,37.862,0.483,178.0,182.0,159.0
-15.343,37.953,0.23,186.0,191.0,171.0
-15.345,37.831,0.208,149.0,159.0,135.0
-15.347,37.734,0.181,87.0,107.0,105.0
-15.343,37.934,0.24,190.0,192.0,170.0
-15.347,37.839,0.132,132.0,148.0,147.0
-15.343,37.72,0.296,183.0,185.0,164.0
-15.341,37.919,0.3,185.0,189.0,164.0
-15.346,37.898,0.137,74.0,99.0,106.0
-15.346,37.709,0.224,182.0,187.0,165.0
-15.343,37.702,0.304,185.0,187.0,165.0
-15.346,37.798,0.173,68.0,93.0,98.0
-15.341,37.739,0.352,182.0,186.0,163.0
-15.344,37.787,0.251,178.0,184.0,158.0
-15.345,37.895,0.169,77.0,105.0,109.0
-15.339,37.85,0.387,183.0,186.0,165.0
-15.345,37.69,0.254,187.0,189.0,167.0
-15.336,37.86,0.491,177.0,182.0,159.0
-15.344,37.958,0.201,82.0,98.0,88.0
-15.347,37.833,0.128,160.0,172.0,170.0
-15.336,37.751,0.522,171.0,175.0,152.0
-15.339,37.755,0.429,175.0,179.0,154.0
-15.347,37.902,0.122,73.0,88.0,93.0
-15.342,37.726,0.354,181.0,187.0,161.0
-15.339,37.875,0.381,183.0,186.0,165.0
-15.334,37.786,0.586,174.0,176.0,154.0
-15.34,37.719,0.394,174.0,180.0,154.0
-15.34,37.764,0.389,181.0,185.0,162.0
-15.335,37.791,0.538,171.0,175.0,150.0
-15.339,37.732,0.437,172.0,178.0,152.0
-15.339,37.781,0.416,180.0,184.0,159.0
-15.345,37.725,0.245,186.0,185.0,165.0
-15.344,37.916,0.198,91.0,104.0,95.0
-15.345,37.907,0.175,78.0,103.0,107.0
-15.335,37.801,0.557,173.0,175.0,151.0
-15.344,37.956,0.199,89.0,106.0,98.0
-15.34,37.851,0.35,181.0,185.0,162.0
-15.341,37.719,0.388,176.0,180.0,155.0
-15.343,37.923,0.229,189.0,192.0,171.0
-15.348,37.681,0.164,72.0,98.0,97.0
-15.344,37.819,0.223,183.0,188.0,158.0
-15.339,37.901,0.387,181.0,184.0,163.0
-15.347,37.765,0.15,68.0,91.0,97.0
-15.341,37.719,0.382,177.0,181.0,156.0
-15.334,37.819,0.593,174.0,176.0,154.0
-15.346,37.836,0.163,74.0,94.0,101.0
-15.331,37.787,0.674,172.0,174.0,153.0
-15.335,37.83,0.539,172.0,176.0,151.0
-15.345,37.764,0.208,135.0,144.0,123.0
-15.336,37.859,0.489,177.0,182.0,159.0
-15.337,37.809,0.467,176.0,179.0,158.0
-15.347,37.855,0.14,112.0,132.0,133.0
-15.335,37.75,0.564,172.0,176.0,153.0
-15.344,37.723,0.276,185.0,187.0,166.0
-15.341,37.824,0.344,183.0,187.0,164.0
-15.345,37.853,0.182,81.0,102.0,105.0
-15.344,37.854,0.218,169.0,179.0,152.0
-15.346,37.959,0.134,75.0,99.0,111.0
-15.345,37.918,0.177,76.0,101.0,105.0
-15.34,37.738,0.4,176.0,180.0,153.0
-15.337,37.866,0.468,182.0,186.0,163.0
-15.343,37.774,0.279,182.0,183.0,165.0
-15.347,37.882,0.128,77.0,102.0,107.0
-15.34,37.799,0.376,182.0,185.0,164.0
-15.342,37.783,0.311,184.0,185.0,167.0
-15.331,37.808,0.681,174.0,175.0,157.0
-15.348,37.72,0.155,73.0,94.0,99.0
-15.347,37.783,0.156,66.0,91.0,96.0
-15.343,37.72,0.316,183.0,185.0,164.0
-15.344,37.89,0.23,186.0,190.0,163.0
-15.345,37.757,0.227,180.0,182.0,158.0
-15.346,37.78,0.177,73.0,97.0,99.0
-15.336,37.746,0.546,172.0,176.0,153.0
-15.346,37.68,0.225,188.0,190.0,168.0
-15.34,37.876,0.366,180.0,183.0,162.0
-15.344,37.812,0.232,181.0,186.0,156.0
-15.342,37.819,0.309,181.0,183.0,161.0
-15.337,37.828,0.47,177.0,180.0,159.0
-15.348,37.73,0.139,67.0,86.0,90.0
-15.337,37.833,0.482,177.0,181.0,158.0
-15.339,37.768,0.411,178.0,182.0,155.0
-15.347,37.747,0.153,72.0,93.0,98.0
-15.346,37.882,0.154,81.0,101.0,108.0
-15.342,37.71,0.331,183.0,187.0,164.0
-15.339,37.744,0.442,173.0,177.0,152.0
-15.341,37.739,0.352,182.0,186.0,163.0
-15.339,37.798,0.423,180.0,184.0,161.0
-15.338,37.768,0.45,175.0,177.0,155.0
-15.348,37.703,0.156,73.0,97.0,99.0
-15.344,37.698,0.268,185.0,187.0,165.0
-15.339,37.876,0.4,182.0,187.0,165.0
-15.348,37.773,0.132,64.0,91.0,98.0
-15.336,37.813,0.518,173.0,177.0,152.0
-15.343,37.819,0.28,180.0,184.0,157.0
-15.338,37.8,0.443,178.0,182.0,157.0
-15.341,37.816,0.336,183.0,187.0,164.0
-15.335,37.776,0.556,173.0,177.0,152.0
-15.344,37.939,0.183,81.0,105.0,109.0
-15.348,37.715,0.156,76.0,97.0,102.0
-15.339,37.787,0.425,179.0,183.0,158.0
-15.346,37.876,0.142,80.0,101.0,104.0
-15.345,37.847,0.187,77.0,97.0,98.0
-15.343,37.826,0.257,180.0,186.0,158.0
-15.345,37.858,0.185,81.0,102.0,103.0
-15.335,37.762,0.575,174.0,176.0,154.0
-15.344,37.779,0.252,178.0,184.0,158.0
-15.343,37.82,0.275,180.0,184.0,157.0
-15.34,37.903,0.339,183.0,185.0,163.0
-15.347,37.712,0.173,84.0,109.0,105.0
-15.345,37.855,0.204,126.0,139.0,121.0
-15.341,37.788,0.363,182.0,186.0,163.0
-15.346,37.933,0.145,80.0,102.0,115.0
-15.338,37.751,0.47,172.0,178.0,152.0
-15.341,37.794,0.365,182.0,185.0,164.0
-15.347,37.884,0.131,75.0,100.0,105.0
-15.338,37.874,0.429,183.0,185.0,163.0
-15.334,37.801,0.578,173.0,175.0,151.0
-15.34,37.819,0.391,181.0,185.0,162.0
-15.345,37.958,0.172,79.0,103.0,113.0
-15.347,37.754,0.153,66.0,90.0,94.0
-15.346,37.939,0.147,80.0,102.0,115.0
-15.345,37.91,0.186,80.0,102.0,100.0
-15.336,37.828,0.519,174.0,178.0,153.0
-15.341,37.747,0.353,182.0,186.0,163.0
-15.344,37.911,0.213,183.0,191.0,170.0
-15.347,37.743,0.179,86.0,106.0,107.0
-15.347,37.672,0.2,122.0,134.0,122.0
-15.345,37.868,0.196,96.0,111.0,104.0
-15.333,37.777,0.632,173.0,175.0,153.0
-15.343,37.919,0.252,187.0,189.0,165.0
-15.344,37.688,0.274,186.0,188.0,164.0
-15.341,37.711,0.379,177.0,181.0,156.0
-15.34,37.872,0.368,181.0,185.0,162.0
-15.345,37.975,0.156,80.0,102.0,116.0
-15.333,37.825,0.607,174.0,176.0,155.0
-15.338,37.834,0.431,180.0,184.0,161.0
-15.347,37.825,0.135,106.0,126.0,127.0
-15.338,37.871,0.417,185.0,184.0,163.0
-15.342,37.856,0.301,181.0,185.0,160.0
-15.344,37.921,0.204,120.0,131.0,117.0
-15.336,37.837,0.495,175.0,180.0,157.0
-15.344,37.878,0.234,187.0,190.0,161.0
-15.345,37.735,0.23,180.0,182.0,160.0
-15.34,37.821,0.361,184.0,187.0,166.0
-15.341,37.716,0.378,178.0,182.0,157.0
-15.343,37.802,0.277,180.0,184.0,161.0
-15.34,37.867,0.342,179.0,183.0,160.0
-15.34,37.843,0.363,183.0,186.0,165.0
-15.343,37.737,0.313,183.0,185.0,163.0
-15.347,37.707,0.181,86.0,113.0,106.0
-15.336,37.766,0.52,170.0,175.0,152.0
-15.341,37.802,0.34,184.0,188.0,165.0
-15.336,37.817,0.509,174.0,178.0,153.0
-15.346,37.873,0.169,83.0,111.0,112.0
-15.347,37.699,0.174,75.0,104.0,100.0
-15.347,37.81,0.137,80.0,101.0,106.0
-15.345,37.786,0.206,136.0,148.0,128.0
-15.341,37.848,0.317,178.0,182.0,159.0
-15.343,37.807,0.29,181.0,185.0,162.0
-15.344,37.822,0.238,182.0,187.0,157.0
-15.343,37.937,0.241,184.0,186.0,164.0
-15.341,37.836,0.32,178.0,181.0,160.0
-15.341,37.825,0.333,182.0,185.0,164.0
-15.346,37.757,0.184,79.0,99.0,97.0
-15.334,37.764,0.606,172.0,174.0,152.0
-15.341,37.795,0.348,183.0,186.0,165.0
-15.338,37.824,0.432,179.0,183.0,160.0
-15.343,37.788,0.284,181.0,184.0,163.0
-15.34,37.804,0.387,181.0,184.0,163.0
-15.34,37.882,0.346,181.0,183.0,161.0
-15.342,37.913,0.265,186.0,190.0,167.0
-15.334,37.823,0.584,172.0,174.0,152.0
-15.347,37.677,0.179,78.0,106.0,107.0
-15.337,37.746,0.486,170.0,174.0,149.0
-15.344,37.752,0.269,184.0,185.0,167.0
-15.346,37.957,0.129,77.0,101.0,111.0
-15.344,37.94,0.214,184.0,195.0,178.0
-15.346,37.906,0.148,76.0,103.0,110.0
-15.34,37.894,0.339,184.0,186.0,164.0
-15.345,37.945,0.178,75.0,100.0,107.0
-15.343,37.73,0.291,185.0,187.0,166.0
-15.339,37.879,0.386,181.0,184.0,163.0
-15.336,37.849,0.487,176.0,181.0,158.0
-15.345,37.952,0.174,80.0,104.0,114.0
-15.34,37.918,0.324,185.0,187.0,165.0
-15.341,37.861,0.313,182.0,186.0,163.0
-15.34,37.789,0.399,181.0,184.0,163.0
-15.347,37.678,0.172,76.0,106.0,108.0
-15.347,37.679,0.191,91.0,110.0,106.0
-15.337,37.822,0.467,177.0,180.0,159.0
-15.34,37.921,0.328,185.0,187.0,165.0
-15.337,37.866,0.469,182.0,186.0,163.0
-15.346,37.933,0.135,79.0,99.0,110.0
-15.345,37.83,0.203,107.0,121.0,106.0
-15.342,37.714,0.338,183.0,187.0,162.0
-15.346,37.711,0.206,120.0,131.0,114.0
-15.343,37.842,0.255,180.0,186.0,158.0
-15.339,37.894,0.386,180.0,183.0,162.0
-15.346,37.711,0.214,168.0,175.0,157.0
-15.346,37.727,0.208,153.0,162.0,143.0
-15.335,37.794,0.537,171.0,175.0,150.0
-15.343,37.867,0.247,181.0,186.0,163.0
-15.339,37.793,0.424,179.0,183.0,158.0
-15.34,37.796,0.38,181.0,184.0,163.0
-15.341,37.809,0.338,184.0,188.0,165.0
-15.345,37.697,0.259,186.0,190.0,167.0
-15.333,37.808,0.601,174.0,176.0,154.0
-15.34,37.852,0.357,182.0,186.0,163.0
-15.34,37.78,0.381,181.0,185.0,162.0
-15.345,37.863,0.179,84.0,108.0,110.0
-15.347,37.82,0.134,73.0,93.0,94.0
-15.346,37.862,0.144,101.0,120.0,124.0
-15.345,37.742,0.24,185.0,189.0,166.0
-15.332,37.805,0.637,174.0,176.0,155.0
-15.343,37.927,0.236,189.0,191.0,169.0
-15.348,37.701,0.143,72.0,91.0,95.0
-15.347,37.78,0.148,68.0,91.0,97.0
-15.342,37.843,0.315,178.0,182.0,159.0
-15.344,37.884,0.23,187.0,192.0,162.0
-15.346,37.77,0.185,71.0,90.0,88.0
-15.344,37.692,0.294,186.0,188.0,166.0
-15.348,37.663,0.152,63.0,84.0,89.0
-15.345,37.831,0.204,128.0,141.0,121.0
-15.346,37.777,0.173,76.0,96.0,103.0
-15.341,37.919,0.298,185.0,189.0,164.0
-15.337,37.878,0.457,181.0,185.0,162.0
-15.338,37.822,0.451,180.0,184.0,159.0
-15.342,37.842,0.312,180.0,184.0,161.0
-15.34,37.837,0.361,184.0,187.0,166.0
-15.334,37.809,0.594,173.0,175.0,153.0
-15.343,37.808,0.267,179.0,185.0,159.0
-15.343,37.779,0.276,180.0,183.0,162.0
-15.347,37.889,0.129,75.0,100.0,107.0
-15.347,37.875,0.124,78.0,103.0,108.0
-15.342,37.923,0.259,186.0,191.0,171.0
-15.346,37.696,0.213,179.0,186.0,168.0
-15.339,37.871,0.399,183.0,186.0,165.0
-15.348,37.691,0.154,70.0,94.0,96.0
-15.345,37.693,0.241,187.0,186.0,165.0
-15.347,37.777,0.159,68.0,92.0,96.0
-15.338,37.733,0.466,170.0,176.0,148.0
-15.345,37.856,0.205,126.0,139.0,121.0
-15.347,37.708,0.18,86.0,113.0,108.0
-15.338,37.838,0.421,181.0,185.0,162.0
-15.334,37.834,0.561,172.0,176.0,153.0
-15.347,37.844,0.138,98.0,118.0,119.0
-15.346,37.819,0.163,74.0,94.0,101.0
-15.347,37.746,0.164,70.0,91.0,96.0
-15.343,37.745,0.311,184.0,186.0,164.0
-15.346,37.949,0.14,81.0,103.0,116.0
-15.344,37.752,0.279,185.0,186.0,168.0
-15.342,37.755,0.338,182.0,186.0,163.0
-15.341,37.861,0.31,182.0,186.0,163.0
-15.34,37.852,0.374,183.0,186.0,165.0
-15.334,37.783,0.596,174.0,176.0,154.0
-15.346,37.864,0.143,102.0,121.0,125.0
-15.341,37.745,0.379,182.0,186.0,161.0
-15.338,37.88,0.411,182.0,186.0,163.0
-15.345,37.965,0.15,79.0,102.0,116.0
-15.336,37.74,0.527,173.0,175.0,153.0
-15.333,37.78,0.627,173.0,175.0,153.0
-15.341,37.911,0.304,185.0,189.0,164.0
-15.344,37.838,0.243,182.0,187.0,155.0
-15.341,37.739,0.371,182.0,186.0,161.0
-15.34,37.869,0.342,179.0,183.0,160.0
-15.337,37.86,0.454,180.0,183.0,162.0
-15.335,37.782,0.573,174.0,176.0,152.0
-15.347,37.692,0.19,82.0,105.0,97.0
-15.347,37.832,0.144,99.0,123.0,125.0
-15.346,37.754,0.189,85.0,104.0,98.0
-15.34,37.739,0.417,173.0,179.0,151.0
-15.347,37.722,0.161,78.0,98.0,105.0
-15.338,37.73,0.468,169.0,175.0,147.0
-15.338,37.819,0.434,179.0,183.0,160.0
-15.343,37.89,0.266,183.0,187.0,164.0
-15.343,37.946,0.242,189.0,191.0,169.0
-15.348,37.687,0.149,66.0,87.0,92.0
-15.337,37.743,0.492,171.0,175.0,150.0
-15.339,37.813,0.395,181.0,185.0,162.0
-15.347,37.812,0.129,63.0,83.0,84.0
-15.34,37.745,0.412,176.0,180.0,153.0
-15.346,37.695,0.218,188.0,192.0,175.0
-15.343,37.732,0.305,184.0,186.0,164.0
-15.334,37.804,0.591,173.0,175.0,153.0
-15.346,37.714,0.221,181.0,186.0,164.0
-15.345,37.707,0.243,191.0,190.0,170.0
-15.344,37.853,0.233,184.0,187.0,160.0
-15.345,37.938,0.18,81.0,106.0,111.0
-15.344,37.81,0.227,182.0,187.0,157.0
-15.335,37.757,0.577,174.0,176.0,154.0
-15.344,37.706,0.291,184.0,186.0,164.0
-15.337,37.737,0.489,170.0,174.0,149.0
-15.339,37.856,0.38,183.0,186.0,165.0
-15.344,37.754,0.271,184.0,185.0,167.0
-15.34,37.914,0.33,185.0,187.0,165.0
-15.343,37.826,0.272,181.0,185.0,158.0
-15.339,37.881,0.395,182.0,187.0,165.0
-15.344,37.801,0.234,181.0,185.0,158.0
-15.334,37.769,0.595,171.0,174.0,153.0
-15.334,37.819,0.579,172.0,174.0,150.0
-15.341,37.871,0.308,182.0,186.0,163.0
-15.341,37.878,0.327,183.0,185.0,163.0
-15.334,37.767,0.594,173.0,175.0,154.0
-15.333,37.784,0.629,173.0,175.0,154.0
-15.342,37.829,0.311,179.0,183.0,160.0
-15.341,37.716,0.382,177.0,181.0,156.0
-15.345,37.71,0.234,183.0,186.0,165.0
-15.345,37.951,0.174,80.0,104.0,114.0
-15.334,37.791,0.601,174.0,176.0,154.0
-15.347,37.816,0.13,69.0,89.0,90.0
-15.347,37.716,0.163,80.0,101.0,106.0
-15.343,37.806,0.264,179.0,185.0,159.0
-15.343,37.89,0.241,183.0,186.0,157.0
-15.337,37.737,0.495,171.0,175.0,150.0
-15.341,37.766,0.363,181.0,183.0,162.0
-15.339,37.763,0.434,175.0,179.0,154.0
-15.346,37.688,0.2,94.0,106.0,94.0
-15.335,37.749,0.552,172.0,176.0,153.0
-15.344,37.821,0.227,182.0,187.0,157.0
-15.338,37.848,0.437,179.0,183.0,160.0
-15.346,37.723,0.202,128.0,142.0,125.0
-15.344,37.695,0.267,185.0,189.0,166.0
-15.339,37.903,0.383,180.0,182.0,161.0
-15.343,37.822,0.276,181.0,185.0,158.0
-15.331,37.782,0.688,174.0,176.0,155.0
-15.345,37.785,0.218,172.0,182.0,157.0
-15.342,37.828,0.306,179.0,183.0,160.0
-15.342,37.877,0.284,183.0,187.0,162.0
-15.336,37.817,0.52,174.0,178.0,153.0
-15.335,37.765,0.546,174.0,176.0,154.0
-15.347,37.837,0.135,101.0,117.0,116.0
-15.346,37.772,0.174,71.0,92.0,97.0
-15.344,37.721,0.261,187.0,186.0,166.0
-15.338,37.755,0.466,172.0,178.0,152.0
-15.344,37.858,0.23,185.0,188.0,161.0
-15.341,37.915,0.295,185.0,189.0,164.0
-15.332,37.779,0.656,172.0,174.0,150.0
-15.343,37.948,0.215,185.0,194.0,177.0
-15.342,37.738,0.337,182.0,185.0,164.0
-15.342,37.728,0.35,181.0,187.0,161.0
-15.347,37.803,0.135,77.0,97.0,104.0
-15.34,37.746,0.405,177.0,181.0,154.0
-15.344,37.93,0.209,130.0,142.0,128.0
-15.347,37.772,0.16,68.0,92.0,96.0
-15.338,37.89,0.415,182.0,186.0,163.0
-15.332,37.782,0.656,173.0,175.0,153.0
-15.342,37.73,0.329,183.0,185.0,163.0
-15.344,37.825,0.226,181.0,186.0,156.0
-15.34,37.85,0.355,181.0,185.0,162.0
-15.343,37.707,0.318,184.0,188.0,165.0
-15.344,37.712,0.279,186.0,188.0,166.0
-15.342,37.753,0.345,182.0,186.0,163.0
-15.343,37.929,0.221,188.0,193.0,171.0
-15.345,37.836,0.187,70.0,90.0,91.0
-15.343,37.719,0.297,183.0,185.0,164.0
-15.341,37.751,0.359,182.0,186.0,163.0
-15.345,37.717,0.236,184.0,186.0,165.0
-15.347,37.826,0.13,134.0,152.0,152.0
-15.344,37.714,0.261,185.0,187.0,166.0
-15.345,37.703,0.233,187.0,189.0,167.0
-15.34,37.788,0.39,180.0,183.0,162.0
-15.341,37.926,0.307,184.0,190.0,162.0
-15.345,37.848,0.201,88.0,102.0,87.0
-15.346,37.796,0.188,77.0,96.0,94.0
-15.346,37.877,0.143,80.0,101.0,104.0
-15.333,37.803,0.622,175.0,177.0,156.0
-15.342,37.82,0.302,180.0,182.0,158.0
-15.342,37.855,0.293,183.0,187.0,162.0
-15.346,37.809,0.19,79.0,98.0,94.0
-15.344,37.935,0.217,181.0,190.0,173.0
-15.345,37.702,0.24,187.0,189.0,167.0
-15.343,37.836,0.281,181.0,187.0,161.0
-15.334,37.809,0.57,173.0,175.0,151.0
-15.346,37.93,0.144,79.0,101.0,114.0
-15.344,37.69,0.295,186.0,188.0,166.0
-15.345,37.804,0.221,185.0,190.0,160.0
-15.344,37.703,0.287,185.0,187.0,165.0
-15.337,37.78,0.503,172.0,176.0,151.0
-15.343,37.915,0.234,188.0,190.0,166.0
-15.34,37.76,0.396,181.0,185.0,160.0
-15.344,37.918,0.212,138.0,147.0,128.0
-15.338,37.85,0.426,182.0,184.0,162.0
-15.345,37.918,0.179,76.0,101.0,105.0
-15.342,37.902,0.289,185.0,189.0,164.0
-15.347,37.736,0.153,72.0,93.0,98.0
-15.34,37.789,0.399,181.0,184.0,163.0
-15.347,37.702,0.166,78.0,102.0,102.0
-15.345,37.922,0.17,81.0,103.0,116.0
-15.343,37.945,0.22,192.0,197.0,177.0
-15.337,37.854,0.461,180.0,184.0,161.0
-15.338,37.798,0.464,177.0,180.0,159.0
-15.34,37.865,0.344,179.0,183.0,160.0
-15.342,37.742,0.35,183.0,187.0,164.0
-15.334,37.812,0.566,173.0,175.0,151.0
-15.339,37.883,0.374,181.0,184.0,163.0
-15.346,37.947,0.123,71.0,96.0,103.0
-15.341,37.872,0.327,181.0,185.0,160.0
-15.347,37.803,0.146,73.0,96.0,104.0
-15.338,37.846,0.442,180.0,184.0,161.0
-15.337,37.748,0.492,171.0,175.0,150.0
-15.347,37.817,0.149,72.0,95.0,101.0
-15.345,37.981,0.144,82.0,104.0,118.0
-15.346,37.75,0.209,161.0,170.0,149.0
-15.347,37.695,0.17,79.0,104.0,101.0
-15.339,37.776,0.431,178.0,180.0,156.0
-15.336,37.768,0.54,173.0,177.0,154.0
-15.346,37.926,0.129,76.0,96.0,105.0
-15.343,37.878,0.242,185.0,188.0,159.0
-15.333,37.82,0.613,174.0,176.0,155.0
-15.337,37.829,0.478,177.0,181.0,158.0
-15.335,37.855,0.523,175.0,179.0,154.0
-15.345,37.915,0.172,74.0,102.0,105.0
-15.341,37.736,0.355,182.0,186.0,163.0
-15.335,37.763,0.566,174.0,176.0,154.0
-15.343,37.802,0.284,181.0,185.0,162.0
-15.344,37.91,0.195,84.0,99.0,92.0
-15.346,37.675,0.226,189.0,191.0,169.0
-15.344,37.754,0.252,181.0,185.0,162.0
-15.346,37.836,0.166,76.0,95.0,102.0
-15.346,37.839,0.156,86.0,110.0,114.0
-15.333,37.807,0.62,174.0,176.0,155.0
-15.346,37.86,0.165,89.0,115.0,116.0
-15.344,37.942,0.197,88.0,105.0,97.0
-15.334,37.808,0.586,173.0,175.0,153.0
-15.335,37.813,0.543,173.0,177.0,152.0
-15.343,37.734,0.307,184.0,186.0,164.0
-15.345,37.88,0.18,87.0,108.0,109.0
-15.336,37.809,0.519,173.0,177.0,152.0
-15.346,37.848,0.167,85.0,109.0,113.0
-15.34,37.763,0.4,180.0,184.0,159.0
-15.335,37.78,0.566,174.0,176.0,154.0
-15.333,37.834,0.595,173.0,177.0,154.0
-15.341,37.723,0.375,180.0,184.0,159.0
-15.335,37.787,0.56,173.0,175.0,151.0
-15.339,37.769,0.432,177.0,179.0,155.0
-15.339,37.796,0.422,180.0,184.0,161.0
-15.347,37.692,0.184,85.0,110.0,104.0
-15.339,37.845,0.402,182.0,186.0,161.0
-15.345,37.91,0.178,78.0,103.0,107.0
-15.335,37.767,0.546,174.0,176.0,154.0
-15.344,37.908,0.208,125.0,136.0,119.0
-15.342,37.757,0.339,182.0,186.0,163.0
-15.342,37.86,0.294,183.0,187.0,162.0
-15.335,37.812,0.54,172.0,176.0,151.0
-15.336,37.776,0.528,170.0,175.0,152.0
-15.345,37.916,0.175,76.0,101.0,105.0
-15.342,37.743,0.35,183.0,187.0,164.0
-15.34,37.873,0.345,179.0,183.0,158.0
-15.33,37.798,0.704,173.0,175.0,153.0
-15.341,37.808,0.347,184.0,188.0,165.0
-15.342,37.812,0.326,182.0,185.0,166.0
-15.34,37.788,0.402,180.0,183.0,162.0
-15.343,37.792,0.271,180.0,184.0,161.0
-15.344,37.754,0.259,180.0,183.0,164.0
-15.346,37.907,0.132,75.0,98.0,104.0
-15.344,37.96,0.184,83.0,106.0,112.0
-15.338,37.862,0.434,182.0,184.0,162.0
-15.335,37.823,0.538,173.0,177.0,152.0
-15.335,37.795,0.557,172.0,174.0,150.0
-15.347,37.847,0.126,143.0,158.0,155.0
-15.348,37.689,0.156,69.0,93.0,95.0
-15.344,37.761,0.266,178.0,183.0,163.0
-15.348,37.706,0.153,73.0,94.0,99.0
-15.342,37.804,0.297,182.0,184.0,162.0
-15.335,37.758,0.552,174.0,176.0,154.0
-15.344,37.933,0.215,182.0,193.0,176.0
-15.335,37.795,0.556,172.0,174.0,150.0
-15.344,37.732,0.275,185.0,187.0,166.0
-15.333,37.818,0.617,175.0,177.0,156.0
-15.347,37.79,0.133,70.0,95.0,99.0
-15.341,37.914,0.321,186.0,188.0,166.0
-15.347,37.718,0.186,83.0,109.0,100.0
-15.347,37.697,0.182,81.0,108.0,103.0
-15.347,37.687,0.19,94.0,115.0,106.0
-15.345,37.842,0.194,79.0,98.0,94.0
-15.332,37.799,0.654,172.0,174.0,152.0
-15.331,37.799,0.687,175.0,176.0,158.0
-15.334,37.834,0.558,172.0,176.0,153.0
-15.339,37.887,0.39,182.0,185.0,164.0
-15.346,37.843,0.179,80.0,99.0,105.0
-15.348,37.696,0.151,69.0,93.0,97.0
-15.347,37.74,0.163,76.0,96.0,103.0
-15.342,37.838,0.295,180.0,184.0,159.0
-15.34,37.814,0.372,182.0,185.0,166.0
-15.337,37.872,0.456,181.0,184.0,163.0
-15.347,37.78,0.163,64.0,94.0,96.0
-15.341,37.852,0.323,178.0,182.0,159.0
-15.346,37.914,0.147,78.0,102.0,112.0
-15.342,37.932,0.268,185.0,190.0,167.0
-15.334,37.821,0.586,173.0,175.0,153.0
-15.337,37.867,0.456,180.0,183.0,162.0
-15.347,37.834,0.121,176.0,187.0,183.0
-15.343,37.805,0.28,180.0,184.0,161.0
-15.342,37.917,0.263,185.0,189.0,166.0
-15.346,37.682,0.233,189.0,191.0,169.0
-15.343,37.84,0.264,178.0,187.0,160.0
-15.331,37.787,0.675,173.0,175.0,154.0
-15.339,37.727,0.445,170.0,176.0,150.0
-15.341,37.835,0.337,181.0,184.0,163.0
-15.338,37.838,0.451,178.0,183.0,161.0
-15.341,37.908,0.309,184.0,188.0,163.0
-15.34,37.87,0.368,181.0,185.0,162.0
-15.339,37.822,0.408,181.0,185.0,160.0
-15.344,37.749,0.265,182.0,185.0,168.0
-15.344,37.938,0.201,103.0,119.0,108.0
-15.346,37.725,0.209,153.0,162.0,143.0
-15.34,37.861,0.364,182.0,186.0,163.0
-15.343,37.947,0.224,186.0,194.0,173.0
-15.347,37.704,0.176,85.0,112.0,107.0
-15.344,37.825,0.252,180.0,186.0,158.0
-15.335,37.777,0.546,174.0,176.0,154.0
-15.338,37.771,0.453,175.0,177.0,155.0
-15.344,37.894,0.208,130.0,142.0,122.0
-15.336,37.866,0.499,177.0,182.0,159.0
-15.347,37.719,0.171,80.0,100.0,107.0
-15.346,37.714,0.204,110.0,124.0,107.0
-15.342,37.805,0.305,182.0,184.0,163.0
-15.342,37.91,0.27,185.0,189.0,164.0
-15.342,37.825,0.321,179.0,182.0,165.0
-15.336,37.746,0.523,172.0,176.0,153.0
-15.337,37.815,0.473,176.0,179.0,158.0
-15.344,37.87,0.208,134.0,147.0,127.0
-15.342,37.856,0.305,182.0,186.0,163.0
-15.34,37.797,0.394,181.0,185.0,162.0
-15.338,37.848,0.42,182.0,184.0,162.0
-15.336,37.794,0.516,172.0,176.0,151.0
-15.346,37.722,0.208,172.0,181.0,162.0
-15.347,37.808,0.135,72.0,93.0,98.0
-15.344,37.826,0.234,184.0,189.0,159.0
-15.34,37.799,0.389,180.0,184.0,161.0
-15.345,37.753,0.221,181.0,183.0,161.0
-15.342,37.817,0.319,181.0,184.0,165.0
-15.336,37.776,0.533,169.0,174.0,151.0
-15.338,37.777,0.472,173.0,176.0,155.0
-15.331,37.781,0.683,174.0,175.0,157.0
-15.341,37.869,0.336,179.0,183.0,158.0
-15.339,37.765,0.434,175.0,179.0,154.0
-15.342,37.928,0.26,186.0,191.0,171.0
-15.342,37.765,0.338,182.0,186.0,163.0
-15.347,37.758,0.169,70.0,94.0,98.0
-15.34,37.776,0.377,182.0,186.0,163.0
-15.342,37.908,0.289,185.0,189.0,164.0
-15.341,37.761,0.373,180.0,184.0,161.0
-15.346,37.726,0.208,153.0,162.0,143.0
-15.339,37.774,0.413,180.0,183.0,156.0
-15.34,37.916,0.327,185.0,187.0,165.0
-15.331,37.792,0.7,174.0,176.0,154.0
-15.332,37.794,0.638,173.0,175.0,154.0
-15.337,37.791,0.493,172.0,176.0,153.0
-15.344,37.8,0.24,179.0,183.0,156.0
-15.342,37.942,0.25,188.0,190.0,168.0
-15.347,37.807,0.139,83.0,103.0,110.0
-15.346,37.864,0.159,89.0,115.0,116.0
-15.342,37.792,0.306,184.0,185.0,167.0
-15.342,37.858,0.298,182.0,186.0,161.0
-15.346,37.747,0.185,82.0,103.0,98.0
-15.345,37.736,0.219,175.0,178.0,159.0
-15.332,37.813,0.652,173.0,175.0,154.0
-15.346,37.732,0.196,106.0,124.0,108.0
-15.344,37.922,0.189,80.0,100.0,99.0
-15.346,37.851,0.169,88.0,112.0,116.0
-15.342,37.929,0.268,185.0,190.0,167.0
-15.337,37.882,0.439,185.0,184.0,163.0
-15.344,37.882,0.207,119.0,132.0,112.0
-15.344,37.896,0.206,126.0,139.0,122.0
-15.346,37.867,0.171,87.0,113.0,114.0
-15.344,37.76,0.253,179.0,182.0,161.0
-15.346,37.675,0.207,136.0,147.0,131.0
-15.341,37.774,0.343,183.0,185.0,164.0
-15.343,37.906,0.256,185.0,189.0,164.0
-15.342,37.708,0.332,183.0,187.0,164.0
-15.346,37.913,0.125,75.0,94.0,98.0
-15.34,37.75,0.402,178.0,182.0,157.0
-15.339,37.761,0.431,175.0,179.0,154.0
-15.347,37.78,0.159,63.0,91.0,95.0
-15.344,37.728,0.277,185.0,187.0,166.0
-15.344,37.785,0.235,180.0,184.0,159.0
-15.334,37.766,0.598,171.0,174.0,153.0
-15.347,37.825,0.148,75.0,99.0,103.0
-15.339,37.86,0.39,182.0,185.0,164.0
-15.346,37.712,0.222,182.0,187.0,165.0
-15.341,37.899,0.319,185.0,187.0,165.0
-15.332,37.798,0.649,173.0,175.0,154.0
-15.342,37.866,0.302,183.0,187.0,162.0
-15.342,37.819,0.312,180.0,182.0,160.0
-15.347,37.692,0.167,76.0,101.0,98.0
-15.345,37.902,0.174,77.0,102.0,106.0
-15.339,37.813,0.414,181.0,184.0,163.0
-15.331,37.805,0.674,173.0,175.0,154.0
-15.343,37.914,0.252,187.0,189.0,165.0
-15.341,37.743,0.359,181.0,185.0,162.0
-15.346,37.714,0.212,187.0,194.0,176.0
-15.334,37.837,0.563,172.0,176.0,153.0
-15.34,37.761,0.385,182.0,186.0,163.0
-15.34,37.828,0.376,184.0,187.0,168.0
-15.347,37.76,0.144,67.0,90.0,96.0
-15.344,37.781,0.251,178.0,184.0,158.0
-15.341,37.773,0.368,180.0,183.0,162.0
-15.342,37.712,0.354,181.0,185.0,160.0
-15.34,37.794,0.373,181.0,184.0,163.0
-15.344,37.954,0.186,79.0,103.0,105.0
-15.347,37.734,0.181,87.0,107.0,105.0
-15.333,37.786,0.625,171.0,173.0,152.0
-15.343,37.8,0.278,180.0,184.0,161.0
-15.346,37.841,0.161,82.0,103.0,108.0
-15.346,37.727,0.201,109.0,127.0,111.0
-15.336,37.82,0.517,174.0,178.0,153.0
-15.346,37.891,0.137,75.0,100.0,105.0
-15.338,37.878,0.434,185.0,184.0,163.0
