9.150671627758852,-17.810958051552994,13.699503674601715
19.313551725823984,5.380681925714767,-0.30801314958917203
-18.113113138003985,8.512870787217583,-25.62196252548346
-5.766065011877794,19.175997708996412,18.994301760723864
19.137645402042217,5.920378348956006,35.099244132848156
-20.01628575092096,-0.3271230776025577,-7.280384797859369
20.040370375508846,-0.13302861417113848,-1.02380168849934
10.81793374879327,16.862546750554657,-37.44967093587975
-8.377423883125244,18.161155006798687,-7.138079237936523
-7.22454850736694,-18.656376241980976,30.19770413088007
-9.337916162959234,17.741550988583096,3.009056562884581
19.96535730049513,-1.343445788643345,1.1198964871019186
18.47780603480793,-7.720205511596723,29.401035864678306
16.47691495485399,11.36658449824396,-10.085906109354692
8.90123317519601,-17.957635137430607,1.5033578689824338
14.690908737814361,-13.611378831520499,5.767874663492364
-8.475264069211114,18.132332601242325,6.514527161178307
-6.035898167927755,19.075884566651112,21.92604720051279
1.4248374802483752,-19.972048338220674,-0.4280472358815146
-19.416840917545098,-4.915036511054516,27.510046579896326
-12.592165306741254,15.579658408485788,-23.120287893424177
-16.42185797738393,-11.499777462177065,9.61912540180586
0.31263750730287093,20.007944154300688,28.995700979922773
20.031139399934133,-0.35455281300027935,29.355409144900108
18.637663777799972,7.351288518895287,-0.7264336219631389
-18.909457409192456,-6.566206873448419,-17.704416487354635
20.01101449815855,1.0725827223641944,-27.793395702013896
-11.227650400178696,16.58786582056594,-14.318259505023612
3.319925967408937,-19.74967959530336,-30.372568945033063
17.53994065686949,9.712161634987943,34.52970879860128
2.295558687318103,-19.91166908527178,1.2620280718955996
12.564084348087714,-15.581034758618992,4.12421372276696
13.192847346115373,-15.061801883224325,-11.748497371295095
-19.915333658012923,2.241321486221142,-8.197558996579826
5.243089462726559,19.32079006020977,-22.29455325777698
-19.373223875912522,5.081753404560826,-4.204131428471854
12.66064432900264,-15.533459180197276,-39.8123067552197
19.95692135261885,-1.454425938986921,23.48004579022838
17.52462004481935,9.69812285418117,5.075430398974852
19.51284970078502,-4.43517437105839,20.97016365780359
17.016174167097354,10.550867267368314,26.729313030960128
-16.91555264190467,10.679827188282724,25.662617634291863
19.435229082941195,4.894449070838011,0.9451052837929623
17.54403700368321,-9.675829975781923,-11.144597650628938
19.233310449725998,-5.636187735265753,-37.899683296558365
-7.7127740847681165,-18.473636908277385,16.70538668720529
-9.91132735807676,17.39729009458396,11.052157329096993
12.739592786289556,-15.47578315701417,7.2534269770002595
10.858538089820545,16.832984648214484,30.101132495730482
11.905391359741309,16.090529183301555,20.920234460099095
-10.369931072499591,-17.151524818961498,-39.84263159870349
-2.4172699255262646,19.855119461657896,-1.3071239123842844
-15.94864464518311,12.093030687385307,-12.944536812636123
-18.79818204729806,6.898504416392237,17.921553607073008
-15.909451980385164,12.174469572688395,-27.79268039974213
17.95691498957591,8.88331199973168,11.656616141400981
19.296200683223006,5.3603885998605385,-27.563699307704532
18.764195040557293,-6.945885709941912,33.79428400900689
17.184368631687533,10.285907534998906,-39.198805328528046
-17.078128316460468,10.458234568625997,10.631490480156899
-16.611748634499563,11.217118642764298,12.19506407152717
20.007242448625632,0.6180961985831194,38.03353351094705
19.70197912139399,3.5153118812175634,-21.28389315417597
-19.893306006966263,2.203719435601221,-11.307171210660691
-1.0081261947307079,-19.99968823442861,-34.888563672313936
19.9393234350433,-1.7573623493883053,-11.95199205020539
19.521414063140465,-4.499324628440346,-39.8358104530282
0.4671053674741712,20.004527539662874,-34.37426701410355
-19.88279736566683,2.362559107067352,-29.594327686637207
-19.666543130559113,-3.666594159296697,30.84257411981889
-12.070112378415358,-16.00570575260783,28.576064895910775
-9.336947028810586,-17.704673442546525,7.451085135454022
17.477653867060337,-9.76335713297721,-6.24065481818743
9.444900230573232,-17.63833204715751,9.802949683624782
-16.072155227751697,11.937496712964307,-34.82295022415636
-18.033295318096624,8.756166170781333,22.030666225040378
12.386523755318883,-15.729327203074423,19.378414224568623
-16.847724191572986,-10.81833052829475,10.833164647265889
-7.347168616858623,-18.6090342639209,24.52321404717337
-9.74780414284588,17.473675988433996,-2.590918061894378
-18.25723413330552,8.248872887649041,6.517066052292755
14.136691039793229,-14.170680960271946,18.217274978875636
-13.646898776078908,14.621671886936321,-5.089084523762594
11.648228192647371,-16.275578490611732,-7.941873264842194
19.914476280696896,1.8516905553536807,0.7342003576172473
-16.07626903154026,11.954339484055291,11.444243019732731
-18.32000738824568,8.08519879336859,20.25504797676998
-19.99110706976411,1.4260567996982019,37.628845544320626
-0.5803656771448297,20.023232987695227,34.68785477931064
13.11041959583373,-15.127728499010976,22.42712991006495
17.016012376758898,-10.524195502843371,-4.830166348132451
-12.626904713689028,15.511102841504565,-1.112391154441795
6.626593949499895,18.90325640092058,-10.807542112280466
19.22362226706623,-5.60855170210395,6.785229525719387
-3.968476259260182,19.632529513738426,37.9743176969823
-14.873139596764172,13.391563109255838,-9.448113996289695
5.175280081079132,-19.321047842360056,38.74639589763956
3.0011255652790356,19.77994390702951,-26.22047687609573
-12.537677965875762,-15.583782378441601,10.229376491164558
-19.794464086265872,3.092612005312056,-21.467514844736854
-18.69914638044083,-7.16847184171585,35.57968402473146
5.815553433255762,-19.15066912067018,-14.568679606927056
-16.801822095966955,10.868001402648558,38.14159569694161
16.080968539884083,11.961302173085828,39.11187710952824
2.2977754174839538,-19.876610892163516,2.3096135608181356
10.524926824581168,-17.059333849188693,1.4432871856072609
-4.941898182586527,19.428319834077023,19.508279465562623
-13.102963099845056,15.134757097327652,-11.035356234518837
-7.034174156092601,-18.752098060392512,-19.01271974474148
-15.00172786239117,13.268828081465527,33.35231226585206
-15.568359614340677,-12.612839463939352,-13.497261600129129
14.725869159347932,13.537562442199672,-34.248291503810435
-6.954037135931287,-18.778604831710446,-0.19509212829830602
1.241124587521508,19.980683232286456,-28.756955509541207
19.832159001365046,2.8800505331160826,1.9575615963228188
9.324264340246344,-17.73039610721629,-20.753800640666267
0.9852381760160022,20.02428213736213,-32.43208521649292
-15.293587131255101,-12.965652443004124,33.14622211086868
-14.393881349384701,13.91591706189691,-18.52259421552162
19.978842329565225,-1.126436510675895,-28.81739879104062
-4.613430039009347,19.505911254136684,7.817661287569962
-11.222715135494264,-16.561150164548092,-31.753476286169686
-15.348488537654685,-12.870672793122388,-25.429766334091568
15.120439441119332,-13.122088259526988,-2.4895019309065347
-8.810216599612437,18.003602539039935,-25.681459876921473
4.857049649858963,19.413291575059255,-27.74094888790394
-16.213434683924177,-11.771256755641842,-34.92477398665015
5.622915621594944,-19.207143929594796,-10.576204653727448
-15.168875269122006,13.065698531254245,32.043125334485325
10.98924334619741,-16.738295159555044,16.789563453176875
-13.478555397291041,-14.811896619846133,-12.794506505350025
0.47701373112555945,-20.012229839921897,5.603872674062828
8.240715823717633,-18.27326245208775,10.894615527023149
-1.5176607889610318,-19.95969166515326,-39.91622878445093
11.997714211205082,-16.034763929928193,-4.365143780528186
16.543733138625477,-11.267151527893867,18.28026224147127
-20.043038939296526,-0.30790251833764715,-26.918843217510062
19.33148297875156,5.214800003385964,16.45223834992977
6.604173000120699,18.891579066268367,-29.415074798962237
9.413097350082088,17.689750985167368,29.080616413914427
20.008813943174538,-0.9806541754944029,-28.174716064275245
9.606315643454202,-17.582850485117874,26.11472020357968
14.228983209335894,-14.10654808278679,4.23887310313431
-17.30506873200294,10.11366608589078,4.361568375734564
11.815546743180368,-16.173330812853624,-35.24756698846497
-16.85333244021355,-10.773752583327331,23.31408535689995
12.780727656784654,15.426204697483097,37.10466362522244
19.723224158469243,3.387125831626037,-6.221201089965348
-17.855787355071023,9.018979347860293,14.607758914280275
-14.153274439740668,-14.19031438444394,-7.664717725692249
1.6852544340399207,-19.953358287294993,-18.791954001799045
19.246107215540132,-5.565113171226697,-8.036827006132292
12.20234622556403,15.851207359992864,-38.495971658013765
-12.304547796914386,15.791489685244361,-7.860320049714957
-19.315772746507818,-5.289393130319794,2.548347366820863
13.256822476687658,-15.032055052625493,26.490696843606102
18.6856010937513,7.151026231809674,12.04296538258464
-16.49309980716384,11.331900297494553,34.31828348610223
12.352803603779034,-15.759820083268664,-31.664321670035793
-4.116762040977364,19.61755977455663,-10.401243099140345
-2.8976424675757273,-19.829928226087894,25.098654360941467
19.973969707431287,-1.336089032698128,35.70175032915867
2.8142225026685153,-19.8102655265594,-2.1565787314304004
-8.961723010034499,17.88339863861993,-22.049041666647895
11.199726280616902,16.590308489061844,-22.98763474496507
-0.8325858593622799,20.017514971870607,29.259335683401957
-7.193724365035368,-18.698892316805416,-5.611623546505655
7.906270746850414,18.41546905330169,-5.916488954211246
-15.735547200387291,12.39258014701175,31.114078830614332
1.373519452543263,19.95832517140534,-9.325844902345885
-19.944437645204058,1.694942234773107,-2.594680402803661
12.869232033213597,15.352307988485567,-33.23331456887229
-8.4236356872954,18.1659347650506,30.757006283127296
-5.821141760034905,-19.166941256547467,-29.39718624475839
2.0938680012750766,-19.92925180966089,-1.6950458522049132
-17.980708633968707,-8.804729821932183,-15.372128759369872
19.72136810265386,-3.581289916523923,2.78263165837555
12.289749409250126,15.814944090913333,-33.80081276437637
12.879589587932506,-15.313624715138197,25.51217452622265
-12.424079473845447,15.724462130331352,-38.52558977210359
11.314033362104631,16.545894561014524,-4.093308529449871
-15.77575877234608,12.357429202494112,24.22976047373224
-7.014590584701828,18.742062920403974,-13.727331774806917
-16.811211590929208,-10.835360842541562,27.9641559785003
-5.495890743095585,19.256230268035832,-7.147273391078315
-14.185045236926738,14.15935949012379,-23.45366823017077
-15.590948176050127,12.534483801597597,-39.64128345075781
10.057320655845537,-17.34321277522062,23.69851946389833
-8.631470249781536,-18.095299468379615,-15.099308753974874
0.4079441929793412,20.026797852942806,-24.09931947120226
19.58822982130272,4.232166662246123,23.02041371662041
-18.66559799207296,-7.31705057654818,2.0530239048597707
11.341885041628043,-16.514954962718924,-0.8600287172237913
-6.4613785268336565,-18.94900375723179,12.847344317250979
-16.997974168795384,-10.590363408224029,-9.737018826126878
-7.536466348698146,-18.552607419570013,-26.478945849259937
6.259049019140387,19.030531683699255,-6.025008156170593
19.828424294685657,-2.8849553231438056,28.10377307689886
-18.871754569629474,6.705479693293887,6.979782958939424
-5.829538405410274,-19.182554639061294,24.52944669765556
19.73850593978429,-3.4103896824015427,31.670817524522178
-20.026893759945168,-0.3535833376815112,18.936972908401913
5.492893515594674,-19.24652870153777,22.798518213885053
-9.47291948432859,17.625124302047187,-0.37765097807000103
-8.479404922372161,-18.16645503841022,-10.965598221863573
20.01550544755794,0.04725680545494011,21.775647172076944
-19.778405559074017,3.1121535074750413,12.828764197793554
-19.669486538491864,3.7967083282836547,18.032777898021422
-15.097952524261007,13.117424839055422,10.449488141794845
-19.673649275458136,3.8145444386002256,-3.8986832657664934
-6.811733356075785,18.851551774743424,-32.04591186601278
19.87293108322943,-2.634882595426027,32.07203851953352
-20.002592376797804,-0.17879257063062146,13.829138603677045
11.351671233537648,16.51222214727886,-1.49803078651491
-11.611073679480223,-16.28953566643624,27.85140201559601
6.693230446857175,-18.881683159582433,-39.32442758174922
19.781418406344006,3.210967640391351,10.986503190237684
-19.554551366137147,-4.423790224331005,-30.240023738710626
9.089982919567438,17.827884719746294,-5.916618033912151
-18.691889363676317,7.119090952593675,-19.01748168437173
-6.34667755012519,-18.974583416222178,35.224543853689354
-4.33105027639557,19.557071446758563,-36.533159794836706
17.260800102784174,10.174499701864393,1.2307899326880687
1.9015540636818988,19.92325649199359,-19.05942702930915
7.039269401732225,18.7361687637365,16.878768084539658
19.649884013327068,-3.7585016965351996,29.05594692613326
-19.98799403665008,1.5387012216222473,19.30023665834638
7.353255992823419,18.641465808762113,15.884022633745047
-18.31572007034388,8.110282186464275,12.71348555283214
5.2076471216260884,-19.347176793080234,19.631329845966064
-2.38791799285483,19.866069573755635,20.213210962397866
-4.82657455297688,-19.428926027482948,-1.96989809635771
18.64395431158534,-7.253319484084522,-8.291430945577723
5.902811247508091,19.14482820396839,-36.30879993664984
-18.712042163844977,-7.1694166171021045,-10.376672460725072
1.775662732279102,-19.95953767365721,19.607592130727596
-7.7443043248704075,18.46671370544723,11.594155399784512
-19.032406313857948,6.246712874053697,29.022025371572425
9.441026707448003,-17.634707201066263,-5.903322978199945
4.794198920097403,19.430289229513672,37.82747501220953
-6.266235449830514,-19.041735364696265,-14.165549181824638
12.153193454286741,15.918188671647405,36.10713434501777
5.09653152769602,-19.360468008229258,-28.239195715690364
-15.528969098063849,-12.644688643258444,26.96892623731658
-19.901480066849473,-2.1553332768572235,-2.4407493261348208
-9.472358705071944,17.65838001753994,37.6144029215351
-15.456676156484505,-12.766660575614718,-20.013798251076615
-19.97119228836178,-1.5450125305798528,10.508930800239739
-0.7832887718659666,-19.991990830537343,-35.949769478467786
-7.0056776715450635,-18.750075111602847,-39.47787463495508
-11.343338867752808,-16.51851049680082,11.151022118885408
17.589036977718244,-9.619779799461332,31.701315811315638
-15.433138819083977,-12.734784975734904,18.92854562593483
19.660961559079293,3.897463357312181,-3.313246317647618
-19.9881476207627,1.3333646361916132,-19.152502419801706
-4.417235272629918,-19.51790842776258,-4.8811255704640075
-18.0969709603936,-8.51774639622159,38.44499487769407
-16.18480163085411,11.772441416635749,-37.67973576349607
-20.01768324242546,0.9373520020665467,-5.010929730920218
19.90496205622954,-2.1676723387470007,13.587101374346993
-10.129104611026998,17.265417415305834,1.8910983998057276
3.907923499280429,-19.627726739490974,-36.0186918910252
17.40876761448658,-9.869298335727084,-37.17077118793965
17.268453067246636,10.179111581157413,-27.731364698513723
19.9903908314212,1.3916036930137283,21.565073166948928
-13.685221421081295,-14.598053156194137,-32.78553535794126
-7.356276109602068,-18.645214793849593,-35.77096146308974
9.753519070802742,17.516258937552188,39.35904106815711
10.573709875806738,-16.988682997955735,-5.528014340026807
19.353930730276513,5.1948610396478125,28.347878728343346
-15.599080303499443,-12.576879347447688,-17.014110031852148
-19.696975277306024,3.672624390891392,6.052412853163915
15.782413688428095,-12.31674007255727,-37.158650441671256
-12.639187117889835,15.520255210372063,-10.954119081202094
-19.5038495040036,-4.57101302406596,19.543395969772448
-19.59634927263826,4.163725569262259,34.67736170833456
-13.157669756423433,-15.086820944143227,16.605835129889783
-0.414133546445152,20.03841110067109,23.904652578549474
11.084447438894127,-16.702074559487585,15.481208475995764
-19.863784671084026,2.6160208658340545,17.892160969053265
-14.283202781641988,-14.010658970946453,-25.73886668351583
4.079858175773341,-19.629530785728374,-11.80731899359154
-4.330318625907181,-19.5434599675196,-19.36865266457488
-10.377498468070822,-17.107549015580528,3.2554532278478305
-19.194738878713164,-5.6554655420907185,6.557812005556173
4.361584648162866,19.551563218977673,-1.2081099854509176
18.116728973552974,-8.505430167667251,30.20857907139181
-14.736913845829534,13.533511583081372,17.955072296236345
-5.244623667894896,-19.300365584884727,-34.829445205420015
-15.22371680908464,-12.995762545436676,28.329028351947883
-4.93632906620402,19.39146364082852,29.06070425833539
13.676900748381124,-14.609625119981958,-19.10645171066711
-11.749102687362775,-16.20365071165857,-7.206563356629957
19.893731666540052,2.4260787833862016,30.944792300156493
-0.7828973110036155,-20.01576445936383,7.040015278360954
8.922478186723575,17.93499891649831,-13.27438136665706
-19.7235405418101,3.593450097534156,24.892833000475193
-4.154345209482263,-19.568686687457166,18.056051792728468
13.491784326180285,14.814895342963547,6.37125199083728
19.483221386078842,4.6102525543191195,28.68091507349871
-3.125319275579472,19.77773286267951,-14.768627950606028
-12.633073336821806,-15.563095828289796,33.5778004405027
-0.3799524986057907,-20.03643780724519,-7.923123179001081
-13.187157972217607,-15.056338748041073,-31.796236053538813
-14.074044209741363,14.245817048827147,-39.42362041690498
-13.550774010403455,-14.775178118581419,9.928263485573595
-2.4532317003213358,19.896641324833777,-28.268645585300565
-9.824676808606963,17.460104453054928,-10.868419170829231
-3.6011171556806465,19.714666680342457,28.665108003749737
18.306537917724558,-8.1448376482239,25.745204038664696
18.022779718132984,-8.752966312834,-25.031986544875416
19.96012495549188,1.3758527074629932,19.253461774665055
17.15057930206502,-10.293958543287879,-12.83775618626479
17.964264263039816,-8.894854607047119,-28.34174409179039
2.7404476501801622,19.845924259407756,37.100638498239235
-2.6659385208975412,19.836368943911392,-1.8141975421143641
-0.8271023367425938,-20.017135092912515,-38.80211875416791
19.447666097439548,-4.836573350705852,-21.157958338929895
-6.022853178743647,19.071772894520862,9.258463490477844
-4.128091319609133,19.58868278443651,26.227960719331293
-8.876266924695535,17.958947991997885,9.58430041654605
19.181290349988544,5.676804501946606,-2.3657696076721777
18.04198850595168,-8.654687701459087,-32.178159992034374
2.1592875669261793,19.924753341712343,-19.57647332909601
19.67077846996473,3.6561790679551844,-38.997270925457855
19.988845734690464,-0.6900126048521226,-27.82791686563259
-14.939719561012733,13.319376503661047,36.787064745537435
-15.794546293860622,-12.316851036621985,3.5565831070155838
8.61884472845583,-18.07197275598079,-31.502019969214956
3.9245239083020027,-19.645982989386358,-37.7735196200192
19.504956334142683,-4.568368452449579,5.902657900599316
-5.4600487733226615,19.247388480565743,1.8967601128525118
17.062218577649286,-10.451549158513865,24.863336169376282
15.172645153195147,13.079684483110537,22.625750699312874
-18.464463048547042,-7.703559062505264,21.844287588658
4.093955888469446,-19.5833710751243,4.287384784982073
-0.8586892146768799,20.007695922360135,-28.694508181573273
18.476653716761312,-7.726052989147407,-34.30829203312509
18.307023176075973,-8.125030198221973,-37.851830236514814
17.384146775181915,-9.914855833752533,-16.438849069282035
19.067683857142253,-6.042389690385942,5.330380214926251
0.7576197045083249,20.027875667129184,-4.270312421718508
-9.392439541618238,17.66094144967498,17.06824664481133
5.993703000488677,19.113344099625444,24.577938072361803
-19.676151295139768,-3.6038936672906243,0.8917949509750684
-2.015689925264469,19.901695915322072,-5.547270195820353
15.98828212414971,-12.059094175935734,-6.307622914989025
19.964727662520055,-1.3668630115849316,-29.350029857739006
-11.532347129974223,16.39462962809526,24.134195701754606
6.617714199662927,-18.89005009566085,10.429703538067763
-16.37835947964385,-11.547856302934434,15.905707925642545
-11.561256991190666,-16.340826143014695,-36.856330809674574
5.591891182896222,19.218517212857854,-26.23794944143831
0.0013716756749598202,20.038862571629195,30.01212632221268
-20.020554862725113,0.8807475807615854,29.114270533840724
14.468748372380878,-13.86776957781033,-30.37808499719441
-18.203207111533786,8.372957912111652,24.770036761226265
14.402910047579883,13.877990989965358,-16.86573022781788
-16.70141608389664,-11.02423426674706,-10.172722793517302
4.224846759383392,-19.57874075016761,23.366788262944233
-6.2504226112106736,-19.040037342672033,1.3948671683256109
-5.5465353494885585,-19.260355576759984,-8.762229376602129
-19.969722891736552,1.2867024832820948,31.307673912706292
19.513558210952322,4.473605941187323,-0.6707424418169552
12.353105300008941,-15.757324583016015,30.095593769938375
13.48533190509222,14.830002910869357,-19.677939459898504
17.86655879976268,-9.061525874765335,38.567255498425496
-4.919146719818497,19.418336579275053,-30.130960781774405
19.00758841284046,6.290342243590917,11.876232998872482
6.474089390697407,-18.929165846985008,-35.39180601109453
-7.99999735736321,-18.34095184366634,25.621524463675883
14.71279892558044,-13.561985773982945,33.139468014145834
-14.459168066062261,13.851261692059934,17.613338188910028
-7.990829574178048,18.340798103035258,14.298749493909675
-17.143625182136947,-10.392643346161558,-13.06077961996527
-10.062141292375713,-17.325571489030068,-31.014124458721717
-19.669105730010763,-3.7120416749689578,9.301886563722931
-18.725056962103718,7.08901177136753,-14.034145858206415
1.319847103197981,-19.959308917084225,30.369373102187026
-17.231474344977094,-10.159543272797666,33.07722667018608
-19.993757423857318,-0.6788030264393189,29.305755669300112
-7.743482322313303,-18.46940911206459,14.147587802534858
-6.124772186876251,-19.053818448972397,-37.13251809143572
16.05288055676482,-11.956047765864195,16.11920904211707
18.79851229656258,-6.8482033064990295,9.843179994592852
-0.6166721905584304,19.99646303346918,-17.02300263964167
-10.745745459726042,16.877539014765148,-3.177102868924557
2.74370824496489,19.825596008185684,6.227685186478311
13.918415368202199,-14.396398214791827,15.623517219071005
18.5490062287069,7.60953560058129,-13.221299926384702
-18.875436092163554,6.732578907397485,-16.145574261385327
1.265641018399556,-19.992812667023685,34.478534205523076
13.515362617593203,14.778749789637626,-29.396686704892847
20.03441660994919,0.37008599346291104,-15.4266497099239
-19.974413334967856,-1.2147037578669133,-21.33261312899883
-19.029204967830818,-6.277875918450069,31.598052858394226
2.508809842129973,-19.84761675505732,20.176393390978774
16.37117282881056,11.551265909508976,16.251544885217143
-19.824177428428047,-2.692814086135246,15.705705150063025
20.001582128893027,-0.04015812419173535,8.80612134263788
19.949278647779146,1.9889634053927772,4.1019035454660155
-16.181044114419418,11.817344765187137,-22.880466311616303
19.656520440414873,-3.8548965448408987,6.2510473730601674
-14.338475483180149,13.96599368663905,4.6647458809840145
19.948826719078756,1.6375059222642874,-34.17377832292903
-14.551146819068775,-13.768671118188784,-2.208250378031522
-18.888322963720775,-6.66593518588618,39.75535626538826
19.933798317877038,1.7386566480644816,-3.9789194973274107
16.90807475225173,10.760609581341827,-26.108595271311614
19.908416557899606,1.9159558290384384,-3.6644296279665127
-14.50468151064705,-13.815667589828298,38.811498872954644
-16.771731263016022,-10.986304487002988,-14.980515356594253
6.7979209677909855,18.860552307242607,-21.723850836398793
-20.02078614676597,-0.6164246412877411,-31.243241567894078
-12.738613048885401,-15.479852269891381,-29.601944955921454
-18.723212819867538,7.12202647937884,-0.024158730626453462
-14.462809765229371,13.817584155989932,0.2044567147577041
3.366863672170986,19.724638713696276,-25.033312486493962
-2.6246050708989093,-19.84228249235902,33.69955091242767
-19.350517194452763,-5.096756729183097,6.635372025005566
-16.368287539539725,-11.502783719250463,9.022096774384146
3.316203664029713,19.76565916952748,-15.297114337181348
1.6762594242459332,-19.960442286950794,0.6192330262957739
19.927543632978406,1.7881674647981949,-31.861433205428877
3.785723921279678,19.648717981514658,28.76121470537298
-3.214591539890287,19.763400030868294,-33.669845444164174
-15.328305090586388,-12.874778131900374,-34.76756564342506
-18.30827918603622,8.05969881230829,-20.816241108268283
-12.46176531524665,15.646826578901846,-35.778915665047904
19.928468869532022,-1.8421813731149361,16.049294831011125
-1.8933546372995926,-19.932646526244643,-5.960281851289238
18.793237374395954,-6.857412171367272,12.774387791838294
-5.094645382393431,19.366554706024335,36.31596115206143
-9.63267861018267,-17.557451174488065,26.29309606438528
18.645490226545522,7.271348626623545,-29.130731394018092
-13.241655428683414,15.026596890883969,-7.290477484378364
19.890455751606094,2.4950108833520224,-4.139286276743633
6.996450724442169,-18.78046458504584,-10.709682400269223
-19.639166429670894,-3.788639606995126,-9.17974577134876
17.690349208766644,-9.403862956136681,11.401709450831994
-11.851573862169616,16.113752634555677,-6.788602694842737
16.345939451989853,11.531803790390425,-16.957070862319476
-19.26468689123381,5.53330935304857,-26.445254846204065
-11.021223810559164,-16.741749938056863,6.361461971636302
-3.7704777868640025,-19.67000331949392,-36.97474442060984
15.622646481385132,12.56590618505365,-30.660294438596072
6.442339937559187,18.953221780710717,-36.95064621961641
19.2113647909785,5.701490445380355,4.029188218449768
10.741770371868212,16.898711103629857,-18.538715385290836
-7.910875602573472,18.404323397027582,20.918921882945128
18.18835980657549,-8.34538634461304,20.699518695528134
-19.597312121156705,4.226109070482001,-37.88028002187594
-6.009387672926682,19.121199800119847,12.946500337481439
13.341722651796797,-14.9618988526246,-25.185292112248145
-8.644388260973896,18.035556181023125,3.8685296378894733
19.253759896412852,-5.559066374675311,-18.305983338777203
-19.975213899228923,1.480349159973224,-32.582178060641816
-3.860995768421214,19.642906608297707,27.865126991742258
-19.150609164850753,5.812767350901752,-38.1856167540391
8.91671123760952,17.91863826610773,-14.185193222332188
19.70223644935595,-3.5341080750309013,-7.628407764128113
-10.492647358397237,17.07870793320997,-13.889529486475737
-12.200600302578955,-15.857414490231903,38.64183133511747
11.916091004014575,16.101131841410673,18.35952755449285
6.06662787772712,-19.076952147905217,36.26611092241609
-9.955761083387026,17.385412445633637,12.662139219206068
11.494111896876106,16.40279046081954,27.897159600458735
5.885170106656354,19.151937797020736,18.577399356898702
-4.3733730402470465,-19.559630698789178,36.10689277869446
-19.39781395125346,-4.961574596450509,-31.004548905577217
18.476102752973226,7.695645665334162,12.501665419994936
11.369466266856245,-16.489713644391035,2.0622865319118304
16.207289719248504,11.753093550690506,-8.449127203410445
8.156809736508308,18.29399500569031,-21.231895715862663
16.68678115452071,-11.042934647018663,-8.174611252238773
-11.952009373828888,-16.046735311926835,-18.962756644518084
18.51707861586118,-7.622024590995018,-0.7226148669831005
-19.197398010103676,-5.768034848554054,-39.43570784748033
-18.183224693158397,-8.445083747618172,30.94141432810639
17.952164695864507,8.87828474541905,-12.131407839518616
20.031063363639255,0.4706639796498458,-21.259632272307787
0.5563117492611114,20.024268623668814,-21.106418521419137
11.062756550206332,-16.68656152592931,33.38466263691032
-19.89956687133667,-2.1231974377730984,2.2032234603143124
18.757239779578885,7.02641195424566,2.1892493527554606
9.842870265808834,-17.46250320808443,-20.83041604339143
19.00813067436733,-6.235687391025364,16.19992837471321
18.068043727023415,8.677727017454629,39.79101982996053
-19.821331101429276,2.7354436192024765,31.019098939093354
15.751825736948051,-12.362435342081106,-2.7032760754990477
-19.93052715281577,1.8044445509047262,37.39466601682341
5.8175894038764735,19.15607463589238,15.559563684835844
-19.745576289687882,-3.250137800024471,1.2003725576839486
20.016298740096037,0.07872269171983075,-28.16851954781887
1.487059843120798,-19.989975569458018,-3.4066326709786594
19.46700115984993,4.652813903574787,-7.083850457886925
-3.6184974104224548,-19.719377509749062,10.534550455861734
13.020031423383159,15.205102397331027,-14.102469868260073
15.62235564975259,12.493400920294587,35.6436318462267
13.236047513929941,-15.014708199105053,26.006384809863377
-17.505618731160574,-9.72089618610998,-26.093012886006058
-19.67933569864788,-3.6568877069001346,19.921324808020103
-14.382924841860362,13.932587394484344,0.18392461678835303
17.587688092436476,-9.61081219356263,31.154919623917507
9.980192357133076,-17.37527590797322,-18.140812853297568
16.751522085518733,-10.963305200991403,5.032737388481877
-19.729173164859706,3.446761264456474,34.14960034324152
-19.96733986898198,1.4865834298917042,1.0935892220092995
15.680872911556284,-12.432042906135326,-22.284507254832853
5.004483703645966,19.371194448562694,-4.8386073674274925
-19.52802461730542,4.488997906614479,9.528950434849364
-10.452622433897577,17.098206394463602,-18.531361387135448
17.220100252512363,-10.214196711294704,-20.62213971417444
-19.899199034636727,-2.377412722062594,1.5513269960169254
-19.710470637939682,3.4202053292733874,-9.91501525212275
-18.089833690648966,-8.552046330154676,16.768704957224152
-8.88024766235113,17.940736365645265,18.852266398684883
18.863104490233944,-6.747903273850922,-32.64031652230618
-9.732975971737599,-17.512735883059985,-33.171239076531805
1.7307164357702938,-19.932500156824492,37.78599635541839
-4.581773048150285,-19.511295504469096,20.158731348495785
-18.10823894142124,8.562037512398705,22.023004904526587
14.500696117649797,13.810226640465519,23.75660680063156
-12.55891368147606,-15.596323504121411,-8.626072808870553
19.682181535310406,-3.814305219063241,-17.59174502491401
19.969968129617786,1.648294687176259,-6.206335850664722
19.556068837359895,-4.409584289505028,-32.99152414120126
18.654168848568066,7.2521937555988245,24.4419282680866
19.907923962601238,-2.321602956622929,-38.040403596535874
-14.704489103408568,13.614865741951563,-22.810747802359927
19.916439486622966,-2.180762904681284,-28.901441140490725
-11.544509889275,-16.389496942699182,0.790879549254619
7.636673569887354,18.514475474891093,-12.78809984090185
6.208053225300191,19.041764634889773,0.8867306116773506
17.789031942576027,-9.214312579354004,-6.609630451923749
-3.3091795057245483,-19.734567473425734,17.08279257996199
12.481450406656295,-15.633378136318028,-26.127005098583425
3.2693589308934317,-19.731646822608088,-19.22858075124153
10.616450457380845,16.962631373527827,34.41175604456802
-19.48808448650971,4.661209936772591,24.2488336854569
20.02289701187128,0.8220046474106876,34.24590252758344
-6.178299678556578,19.025786811393644,-22.42087953424018
-19.856284526614466,2.681398205881384,25.08147038116094
14.450035440922894,-13.865196671930537,14.869673672972837
-9.682841693384722,17.50140781476867,-7.42641781770358
18.54900225529441,7.568246339219672,1.7593317563840856
19.484107662345803,4.539343870575637,10.673583717410757
-20.03246339194833,0.8082910219041953,-15.009207495902189
14.800385797492215,13.51042233828366,28.44768892638102
-1.0048393410385439,19.997022314761548,-31.006822948201346
16.43368137234604,-11.413975134288428,-28.23272032899454
-17.143415104682546,-10.308475388202913,11.825651840205865
-16.536378603296598,11.307589470941945,24.263510727488722
19.652617323427034,-3.8142621757690462,-3.417928728005755
8.367604562092673,-18.212174604540728,7.736325455956752
8.555853960751556,-18.129324716899117,32.763653351504686
15.716183483233822,12.437781869645553,21.10099702441922
16.727204036665253,-11.028896394083924,-38.82311732655353
-1.4008006494801193,-19.953879359713373,8.387049426461587
-19.282105091853357,5.362610733282586,-30.62302545937517
18.35120013604178,-8.06792688619188,-0.8170761263493489
17.988368268904853,-8.833914841341004,-39.34172316499395
18.688641977066435,7.22213198216694,12.42886695026668
-6.189460507592143,19.059002261643204,-11.219068714716194
6.992421102608953,18.767764818314493,33.57870926844481
13.90053510652376,14.44757954940628,-29.486435242546236
9.201380272589057,-17.779715356143605,32.048027755588905
-11.776441666399645,-16.166350857859893,25.863711931148515
-12.69045661687899,-15.490839700815098,-18.65450893368081
15.2705483623983,-12.941858662519426,-25.336321180528554
19.448898690365258,4.718560017402663,24.13486122709611
-16.935698369719717,10.685955415065738,14.978788232277118
15.592636176265373,12.56725752143185,13.656753174449541
19.98912664400323,-1.3693821640384087,23.181453998513206
2.2510054051801807,19.899590646584638,-17.600846079080334
18.8956502312863,-6.6535957376467,2.956165694199271
1.636252916788895,19.93855291660999,22.877820675000564
17.703007531664188,9.407223568170226,-25.37179928645915
20.045497766316995,-0.0005899171447626758,39.12993542061112
17.933239692317986,8.923602252774952,-34.584058540486126
-0.29672301339102014,-20.04758515731025,16.217692444675535
14.885466860700033,13.367226056424839,27.58023065627698
-3.546392488276088,19.73047238681245,30.66038324375559
5.056112458606487,-19.367413504157994,18.218803061596425
-12.656167283711985,15.54119784789879,5.614191184978658
-16.473701449031363,11.42647780683797,17.714570915507537
1.2363060544231401,-19.99497771022858,1.6897986272384813
12.220519088739334,15.890584688569751,-33.76358858955341
18.223628991600513,-8.248752769033901,-22.251237208872638
8.802012183875341,18.009074317718525,33.082311763508855
16.012441603150947,-12.0601184555801,27.372377571863552
14.161032181657212,14.18882068234657,11.86233365374364
0.4651430683557304,-20.0310864732213,7.653311369778521
19.984370175218917,-1.60155914871017,-15.179834590852607
-20.00540325063989,0.6343936151106547,27.088163863775122
19.83969052315241,2.8108259751890357,-7.257028992143553
1.5681543113188914,-19.9666685580451,-23.97478456850329
-19.690102670233664,-3.737127779831259,29.961175211201137
-18.261794193254197,-8.27394823897842,19.597610775813266
19.42846006361165,-4.949174571229003,-33.76659009007473
-20.03574270090106,0.3160407244301607,-11.506637794526064
17.704539710599757,9.396473757634764,10.306130273980749
-14.128971017538467,-14.181147983058512,7.73236728217573
-6.234874737054211,-19.01746732130698,-7.698189648713765
18.676986717734593,7.176748148120892,-34.14830692611589
-19.933444708426908,1.856214756727256,-38.10010104461721
-4.986460737994668,-19.371381226387765,-11.437946190161583
1.2534067840575558,-19.999917779762743,-39.160630701395874
-16.890976087722393,10.74260646717352,27.430855907624746
-11.757357419536325,16.187886816875437,24.686464344876185
13.407475068148532,-14.853404096249117,-11.080073340678773
15.67365026139795,12.474381960747973,-38.424635439574445
-18.41712847053631,7.8143391725435976,-24.91602621784674
19.7906545850476,-3.005263697323261,2.5751226379957757
19.596564007054894,-4.186500569672946,39.530421910824444
8.075799176877947,18.341592309201484,-7.612567021633431
-5.130392062340815,-19.345028924288872,-35.74350906575635
17.684429689423173,-9.405238371443726,-17.863934498201246
18.9135751095295,-6.532057442489719,32.460571676235745
15.535473819239227,12.65625247163996,-33.996945276681735
17.8086664028648,9.199426308249068,-16.14831337851583
16.931312716886637,-10.688012170518029,4.656298864604651
-16.094621557696467,-11.945458067960665,22.169147960903857
18.23615953947435,8.27595583370225,24.25229985552855
9.548279596774597,17.61805990366012,16.397255570173286
20.001091935997078,-0.9100914137087057,35.61558554876608
9.65123495584498,17.56234700401249,20.917012900375184
-15.849316245750202,12.206123253459905,-25.566171836822285
-17.690071056666678,-9.342139006387178,-1.1258656328118946
12.681258197427555,-15.51962165368376,38.949660209684595
-3.6465535917733884,-19.687806458572105,19.888086092469372
-19.582195899428026,-4.209118967288267,7.4488850368626345
-20.025984979778894,0.5490229283384308,-22.11917135128365
16.367036526085357,-11.580019798068374,19.52557539695431
-8.162694332666685,-18.266978732786495,8.780574261546292
9.194694147328317,17.806721519290996,11.374432756813661
19.804387855236143,-3.0835865832944744,-12.355972613181862
-19.91719134509043,2.084518261037239,-16.139352576270074
15.025772020834642,13.238793958942548,30.32272049338303
-19.705526990464346,-3.680023953910204,-14.607328353970061
-1.4283949913327632,-19.97981010907878,34.73644661383062
10.53397161246156,-17.001551976420394,6.545281107179036
1.3388800469368982,-19.971323255896703,-28.44832229172824
19.575724740742977,-4.120007991226641,39.621701101659056
19.285776477346356,5.384439508186352,-16.546876736622238
-1.6786056728565764,19.952472428332914,1.3814690913884107
16.744955757879474,11.009899090372134,-16.86990057362415
1.736365898763139,-19.935197116195926,34.772171335078184
-4.192210242413192,-19.557507882955413,-3.287421070091696
19.95018447414804,-1.8616311125691436,18.23905029257024
-6.670132193781527,18.88558543483864,27.25856085298871
19.35923065023875,5.099817471513629,18.762912556585356
19.282151988166518,5.485005786910768,10.176080191182962
-9.878823327376981,17.402430826117026,-16.3530473514895
-8.138739460653728,-18.318760979905157,-7.932143082343657
15.950073443566577,-12.147981505509831,22.98019497494468
-7.461027025960107,18.608159556828042,-29.2046546888852
-8.862996823805677,17.95012580647034,-7.957011193636134
0.49560560176141216,-20.000432834524812,19.868071344998697
-19.99617234889757,0.8235711437576029,-35.84438184006508
19.97145779115647,1.5505496239966263,30.082656371652632
-16.666931119095942,-11.100360462772587,-12.434087703528263
-14.061563242308356,-14.265945435693991,18.912205826881646
9.27059596836706,-17.74440837320613,2.1189623235288835
20.04786735776546,0.20113198789133163,11.33258929738843
-19.951944920362184,-1.8668977308518064,20.737138999288184
18.465888188059548,7.774563174638297,-7.1350166010701415
7.5253261830672304,18.579781516789858,26.31266965282046
19.24762436561215,5.4429466995601805,30.76293178082645
6.216906973883427,19.00932847862363,-0.2505625262393991
-0.7870757356601441,-20.01166892453862,16.052010063957532
-0.12499596030435725,20.009054909386993,9.41049816294624
8.31129575791921,-18.213522884080046,38.3319850683809
-5.354362922020404,19.306564722839237,-39.61823316411188
-15.495854530348272,12.674907981589278,1.2523243502325343
-14.704576678396448,13.618531768460674,-37.0880344309261
-10.511385413920559,-17.073250792468723,-12.307838361489143
-15.06675090975026,-13.180291579292794,-24.722435196719765
-19.256035299594515,5.412850557104419,-23.169612384479183
-18.429704962276173,-7.812846828371538,30.595874132347873
19.98399069310997,1.3045128409169022,-13.49679762750651
8.61039542885328,18.087212980616606,-30.032711726072243
0.5364836747198878,-20.011052672641604,3.290553282109805
11.071242097999932,-16.700247063131982,32.20256227619032
12.54160520192435,-15.59025039718014,-34.52515875164612
17.829164838836473,-9.170076868658377,-18.483553851655124
2.843479352459983,19.823464632001315,27.36549432198359
5.378504799774137,19.308764001666894,26.677475047767643
-20.037447817529674,0.02204009767896771,-16.26674728230647
-3.3369095086800686,-19.751933729161777,-13.335704441808602
11.422919854741444,-16.419343063118504,19.49856623137108
-6.07121093837033,-19.059006232243842,-14.149968334633964
6.368744698288674,-19.00310785747109,27.794929897352716
-10.190832304405117,-17.21956044981435,15.885294324325933
14.892171738692856,13.398164802531152,-33.23913225124321
0.5463259627958863,20.03380593241637,-33.12736271850233
-9.112866991671838,17.830019366948612,28.652051357492667
1.4205720193925682,-19.973268658872662,-1.862285510748606
15.725093799333795,-12.363279626295963,22.62031688899001
18.110027392705778,-8.50037293654287,12.230112110160078
-16.094015777541397,-11.882010648419184,-35.982420654055204
19.70226438738869,-3.6244143574012937,-17.45529541361803
9.274768148400264,-17.729006004500828,26.61947655261227
-5.431618098088355,19.275841973223717,39.59507500363469
3.6574290446579094,-19.708024148315616,16.63457084224885
7.7190865778538935,18.480527005020736,-3.4054493464582407
15.79055960791191,-12.327107509328213,-35.59695711643906
-11.484786367373145,16.398443827266405,33.46244203861835
-20.010596688265036,-1.0302561194730575,34.977909655201955
-14.817533228752877,-13.485042757808783,0.04182100960561996
17.1632701892738,10.31656045705191,-24.079628176232
19.875597935221194,-2.5937235206760234,28.486875429210826
5.674274910636172,-19.226268113739543,-32.57327022746555
-19.465787989456985,4.7468521936806525,7.042538447746615
16.531922850724307,-11.2730810805615,21.99060133889475
16.572396144603818,11.197460532480408,-4.059851193001798
-19.12617824283901,-5.888073494306221,-27.416210459404837
18.95216344844057,-6.447286411921772,-4.934714099534375
-5.853980349773663,19.133225663391293,-7.930145758233053
8.95237195688953,-17.917929666218072,14.67013074446833
10.214838445208342,-17.201182786543708,27.437412810598445
12.8555711977749,-15.346174572408822,28.78249825407329
-18.97240493174206,6.4461028339864574,-25.350252675059703
14.95944899747817,13.306349611192916,-10.090074327001204
-18.209885671624605,8.348037750640314,-14.545561236585584
-4.0608540855936175,19.63220732686781,-24.570613040904536
-17.488429499155362,9.716429117222766,23.04531430838746
-15.604255199247136,12.556830897931516,4.2205513211924455
-15.617043786671992,12.511911499330056,25.75168127767688
19.09884466886499,-6.033056006177591,17.20202582745049
10.694017750008042,-16.95632407917623,-1.7477106579217576
0.8180751236666057,-20.025002003778706,16.3665789766727
-11.042675522111296,-16.698296769875494,2.4652149674731945
-14.832806717515195,13.43787016020515,0.215599328521769
17.318872068583826,10.0998745476008,18.29483095525802
17.78309568708251,9.1654970978414,36.01096797102136
10.41886213396857,17.113744895059494,-0.26489663756898096
-13.797787688035864,14.493329734604238,-31.540809583073273
-10.481638943266084,-17.066426935399246,-39.43565606258588
-14.309626231329098,14.023990892719235,-21.896474956585628
17.762799448529787,-9.270169555533833,-39.365562838861734
-1.2022148158928139,20.00765800042628,26.87793694329882
-5.675888373522258,-19.190295875894595,33.92250386564638
17.090663188192817,-10.453737063294822,-10.280784638132339
-16.707608043976446,-11.071967412788462,-34.686975187163455
-18.112965499769064,-8.590350289445501,33.18766412852693
4.105846137512079,-19.588607037177553,-13.507274078250468
-19.779611632264007,2.9920253938163146,-22.582907245544128
-20.00004012042566,-0.4942962999361402,-26.658065055437117
-11.11609170326338,-16.6384728350226,8.481556710573237
-17.5285418866679,9.652611317263329,-34.86520123119903
18.92716895453752,-6.518305047692561,-18.121380572920742
-17.479743776382186,-9.807116424040146,-16.813938837367672
-14.704913107721108,-13.558288565071326,-14.335709641673311
-1.1263033968011045,19.98312657170387,-35.629495761764254
-15.53529238119599,12.670269079478329,-17.182952913807537
-19.999865420826623,-0.8247486653260439,5.049901428101563
-17.917090761877372,8.942843982159099,-30.269903437967976
11.96010060734228,-16.041353432264454,8.906478560908695
-15.628588611965371,12.48420064459148,-5.939661546177597
-18.486623633918306,-7.651548182485712,19.960166177055058
-9.937525942522168,17.400223944256123,-29.78241712681654
1.1458730561734316,20.014452274945377,15.04213283543671
19.956176042683122,1.8848812982495455,-3.887186805663312
-4.694953547189422,-19.466672137488565,16.351665192274503
-18.881253859999244,6.694890965627116,34.958852655032445
19.99402391117479,-1.164772565483121,-10.316912839877006
1.1077846237961912,-19.991476524081293,11.64731584042653
19.5748603924619,4.285223238643708,19.847162387268796
18.604936024008303,7.473843641945743,1.778541045584518
19.89529011127683,-2.366577469129864,-16.549700310273163
5.336626468534746,-19.28418363919177,-24.10473748537666
-19.738820679334253,3.24007142155212,-35.53218862817033
6.367396603405201,18.96298670273226,33.084335927166705
-14.456888387899738,-13.877972910423763,17.331550545183525
3.2507382665449898,-19.73695447264952,25.842943018624624
-14.576522200433624,13.706647596845839,9.054795307236141
11.324580205630264,16.507611683670152,29.24970923741911
11.458744266132765,-16.409026736547972,-30.27013392545209
17.899429571246465,-8.923349740482863,23.629233944005385
-2.602853550052091,19.839572090477148,37.34750373145948
-1.1155411679541773,20.01194635933589,-6.202905343562215
-14.531074746494156,-13.756206693069535,28.350719212864647
2.8202483082167666,-19.848178843906812,18.94479132853904
-9.279946875248868,17.730061023354992,-18.84502536012355
-8.922351744106729,17.926455931787945,35.536449029771106
-19.51333913251462,4.575526670645124,-32.676358617245526
18.878117262239154,6.714597805911782,-36.53288126579058
-20.027035481280297,-0.859230117116326,-20.332636195030894
-12.691187555445465,15.475749898812687,-11.817688604278267
4.711196680329022,-19.437244695669918,26.626768783433974
-13.026818445853351,15.211317607967564,-15.840477701403913
-4.033157295051342,-19.596675048644496,-27.656609605375564
0.02314913487657868,20.04528630227144,34.77563767095094
17.216761255346988,-10.183306604954401,28.231225677830977
-15.685204547467606,-12.440958338870965,28.17297891374095
-8.791993851047406,17.964772827590966,9.909959244793207
19.746522383022555,3.4539218578528637,31.246473167301318
-19.677749562966035,3.6288619962616258,15.466072861152085
-19.526566248943254,4.360972382913726,11.265482968513787
19.74533721987991,3.353871030257059,1.2886180769374818
-8.321693105238527,18.23493318464808,39.95054888035595
11.26689383196178,16.524616699785998,-10.518870440620873
-13.719481281704777,-14.594782155041235,-28.019286751534977
-2.008152816109623,19.943279353126716,-14.080576440142323
14.718039389292242,13.561871786199099,-32.801215926567096
10.929022069407681,-16.758883276520304,20.177959562782924
2.1966631200031985,-19.899282923596537,1.0518815911481312
14.856049473141201,-13.391683593478191,-20.437727499912732
19.25871455394615,5.456381837656566,26.91177131148116
9.602556476384523,-17.58368793320399,23.870426476909408
2.3114685518033165,19.88929435645461,-36.325773097047175
-13.773719580592893,14.546126507634956,3.383409155807577
17.047613800757002,-10.538746375694737,15.524377050588924
2.09915554950309,19.921877100552894,-32.503146634887266
2.6095825817300184,19.845747117161494,27.597847154793072
-4.048268871537965,19.60507998211376,1.6768460782215442
12.474566235600822,15.667530572695322,-8.613578184493278
-16.920857636434715,-10.70219943036408,12.284053765909107
-14.658086900294125,-13.66089682342917,18.530578805108462
8.822568421802885,-17.975553482176114,13.285414526533081
-2.3810355641195478,19.859861533612506,-28.001055103202603
17.27877654975872,10.156745760716687,-21.7398251545264
9.354741062508863,17.705800593009535,-10.8789270773552
6.968791604012206,-18.794803526452476,21.930807332441233
-11.873114794116654,16.100060295892543,-31.337462299854373
10.068342732883947,-17.30317617226008,-35.55745975713663
-15.049627369192354,13.229107976248944,-29.545300051357934
-13.486081862485658,14.804881817448072,-31.281004794397845
-8.862069821614948,-17.950282455956298,29.73823502550752
-18.330697583476127,8.081405484808226,1.9284842905566606
-13.902683202554016,14.414167072640712,16.26465662974116
-16.628600093944772,-11.198704603248203,33.585616761839574
-6.420068908269139,18.985429762354272,-7.451569860787629
5.529343254228954,19.239218657783663,6.544162158447442
-18.663957211832226,7.283225615315252,-18.908888007194378
-5.894709843356305,19.13654746172889,33.170606177900055
19.11540733202234,-5.96333760969493,28.882060750704312
1.3452584757162789,19.957981880366066,24.59648104313149
-12.030362416089883,-15.984161936975186,-1.052840881319426
