0.016486573213468685,-8.530124184770159,-19.30210135015039
0.0005881768664139989,41.078085240692474,34.77608780549063
0.01381206483272892,-18.872819364392956,38.53806918436098
0.002126410238383513,28.153186140112552,-10.261496808940805
0.01612693908349242,6.84421375697967,-15.636955243835423
0.00511360103693112,45.00540987881202,27.230439245992514
-0.013207168783752244,3.68205539196245,48.846544995656885
0.02301349686270674,-12.978244861418275,-18.63406492130728
-0.007286375027430205,33.42907673391055,3.752557963442662
-0.016580161968310296,39.76994096107789,-49.04846162527796
0.01932095111839869,9.997344001114719,-24.909600199903725
-0.012662468741869538,-11.693834551946011,-39.18336514357752
-0.023642022229477106,7.682536800165899,8.128901677847068
-0.023040835230490764,-22.90423786298098,-6.980800171210902
0.009744415695738355,12.482200195978699,-13.673989055090082
0.023588549890669906,1.0942064776447893,-42.79934839189228
0.020000098712908615,-48.6312438707311,-20.305127096057664
-0.016374419476493835,-38.795547889797575,-13.645195846622627
0.006444903011027049,-21.641648103775026,-48.374745175265396
-0.0006918725818767339,-16.2487748101003,14.52536489068838
-0.020552742118338064,-16.50601141208866,13.734067080592723
-0.01366758732162663,-44.55621181408495,28.55809404947692
0.013055360499559826,-9.506382603321725,-22.68053794161825
-0.00803828141092628,-45.8486912890183,-42.33577260296496
-0.010288983404852216,-41.70676138389142,-8.220625335838093
-0.017566385645834653,31.76138118333114,-46.55225683289961
0.01036508284022071,9.690438290481637,-7.606215703281784
-0.018240357158252764,27.185754978421826,-42.709167003541204
-0.017773616089032742,-40.1123103510094,0.11417113553928715
-0.004641883816157079,34.57176992156698,-17.51624383854471
-0.006969232816993999,-39.41150837076898,-5.8430524453354735
0.01581323882161991,-27.883823801873366,-13.38066435014349
0.0011443298652002165,25.092615843917514,32.519680547146976
-0.002387907233317145,39.97801198654196,27.112172125605298
-0.011302053350568926,-0.6596152119058374,-14.90848442500321
-0.011483117154442352,-28.146485904682518,-41.958832574666246
0.019675631617843733,9.286599961315567,26.16099004870813
-0.0066354960424066314,10.075517365190578,45.56168302183259
-0.008791973409382963,-34.76810871407838,-17.987667948225962
0.017225333563378326,39.184551406132556,-46.446650127882336
-0.007199776733210008,-32.31206456904396,-1.1028780268097833
-0.016535844360879286,32.73824436515274,32.40537546312892
0.020824784948198873,-32.216384874530135,-25.96122626538495
0.0069484227686895175,5.913062400816159,-4.55344309565735
-0.006651578232252486,21.054549232268045,-12.668406180488454
-0.0043292859022783445,-5.317803958854917,25.69035457591427
0.024568598472537367,-4.6455394963652665,37.8873527860282
-0.014545010805984183,17.786619681480744,29.396947267414063
-0.004772773177724864,7.6291790487896165,-29.654835049196727
-0.004734646586392506,25.89253350353195,-15.62033806254486
-0.007651358652871615,16.111428766443126,-28.423876726578555
0.0037247487471035075,-34.00618162496437,27.218301356800694
-0.005247665950086668,-28.93451225248025,13.26973685146676
0.019564027986664734,-12.63060098937386,46.64681862635467
-0.010713203056076887,-17.168883582497166,45.09415929478986
-0.013280094583413572,28.372276887550626,-37.99709789456309
-0.01800666547012423,-37.45261502370009,-20.12557466727398
-0.007245367836277435,-0.37438946084373725,3.3495372947558693
0.01220656692128097,-2.5385855279546092,35.663942607227
0.009019371586766835,40.867936564163415,38.07019726268577
-0.01930267931302402,-13.41870736080805,38.92123921980752
-0.014191578162100028,-8.916036713489582,20.51306637877164
-0.0058656590314170864,4.787404850890944,-15.11399605950232
-0.0052163163245546665,40.12021940560382,44.42618180204323
0.01698098956698424,-7.309181677754182,34.83960686562551
-0.011494637641061695,19.78738093658825,-44.409311260245474
-0.001638304712565819,46.994540506276905,15.509786823015546
0.013252927053842643,34.74652680484117,45.87017002577299
-0.004153472700118475,5.948382569276113,-10.403668056892045
0.017761151718524208,8.30146023621053,-45.74895239853512
-0.00218010869193953,-25.680789524050684,11.467457585696536
-0.02384813936944436,-13.756659323731427,39.08479336635622
0.020880805645924684,-37.123943815598366,5.3242813814365135
0.00776282865639806,-20.00793111702186,18.707120390578268
-0.017007938993791237,-8.358679262828261,5.439132777012169
-0.022016751126853334,31.607620632156753,-41.9299175953634
0.00014779522221142205,19.1598369235557,-39.55994705944035
-0.010531384803186534,36.506312468396004,42.803802143279896
-0.010681312939053257,-44.80759539634502,25.93503462012424
-0.005083492178900879,42.35220052461929,-36.97215123441675
0.013413041506927813,5.328678888237945,-42.14407107522176
0.021188010659001548,-8.715876997539965,24.490162059303728
-0.022873369139798535,-2.304094751559873,-43.878306780780704
-0.010852996345323523,10.172568620595968,-9.651711366507676
0.003890532530226455,-23.349867033999704,-13.491593913306588
0.01016036860294793,5.532223811996076,-8.883624808537895
-0.012648715666441891,11.58049893055503,-48.478624209320486
0.005323993817459034,-44.343514442597375,-25.146757157656484
-0.002911137926754497,12.467217943697804,-25.2045820085528
0.00582013463042641,34.05518415765491,-21.894305497990075
-0.023881503063636667,15.645877568893937,-8.991635700003734
-0.0029862789081528465,20.503252428299305,2.934795385122314
-0.001467584887119372,24.26381189458708,-32.125788399613086
-0.018160234347347443,12.271157541017608,2.88368429174929
-0.02052294946637151,42.45116213725612,27.11665808073313
-0.0026928444994712697,-0.6257656504752092,-12.512976630124342
0.005036184355862155,-18.195163075038355,-4.00610005928452
-0.008034906204039939,17.349880118851345,-11.985382121453291
-0.017712718068660517,-7.471242212477989,-30.58014403655588
0.01573130421518725,-19.18685225436366,28.16989627717173
0.019047074148922503,49.31888961238505,31.36666254912373
0.018298536214963204,-21.051852418989768,3.351583519676268
-0.019951338003235217,49.09180369794764,-23.060345558233575
-0.0027117196498969154,18.44817794978725,-13.245558971243845
0.005334524474197695,-25.170616052306404,5.615773187189056
0.024369577999016893,-5.430802592702392,10.951894103753865
-0.008993198484577376,-4.11356661369409,32.820369636333226
0.0025007164043782046,-19.415423636166906,-43.700118863512536
0.0032662640603001517,18.27531027828543,47.645793458687564
-0.00014322869464212726,-25.516643388310843,6.156456761412997
0.0193619454548494,27.795351339716348,39.82324714567186
0.018591030225684466,-25.278525846679155,46.07424700252474
-0.024281994841569884,-8.475691821285068,-49.05098150904414
0.002461325608037041,-42.72144712541397,-21.249998054374085
-0.020170799252303508,30.225569592709675,32.07305115481206
0.020576505487340052,-39.44303674942229,5.0644446952575635
-0.008480499217184391,30.41096361828349,-3.233853450463421
-0.0005962978577335465,-8.942287360541002,34.61445263336168
0.016750238842286526,-33.75711389307562,-2.808972183475845
-0.020225413312333615,-30.655636520221506,-3.616882962086585
0.024867992344754605,40.39647108829077,49.795765739297934
0.00399489573414407,-6.697513611350168,-43.7677500125444
0.0131275213403503,-29.686943407197518,-15.952869408555301
-0.004429846338976272,-25.996212898699135,16.92605934473133
-0.0013440532077074255,0.6893169010710665,35.38290940354679
0.01792241567965315,-10.16514357960002,22.30925876405108
0.018740899561188955,-13.531893187426448,3.7532775598260955
0.011118469827591279,-24.044469397392763,40.957711333969584
0.020256906384358224,-47.05872267648552,-31.404305847122917
-0.020945132786533562,-26.397063202206073,5.772889046422506
0.019877132499763014,7.581410985346913,1.659417756449443
0.021684647282183812,26.990187567549043,-0.7191670698075256
-0.01050729002384614,36.19824166529423,-32.05949445917461
-0.019516936686747408,-22.901932620504205,35.31270715572022
-0.02322812416950125,-34.092984915101674,-0.09149568085815929
-0.009124246027238766,-41.186124849196474,40.721804127421365
0.008486310281541502,15.043468938451241,2.2730015274385025
0.0001528879891228227,-11.733257539542244,24.48761227301995
-0.0005171284289314029,-12.264308399263513,24.00014158501878
-0.00978662295660574,-15.227594802421315,-37.8907096034507
-0.01823894683946762,-11.730834074567156,-8.6965132094332
0.011893756365692239,-34.49809909768121,-28.049980802990817
-0.008428402440982797,18.937229879626543,-29.578074841326675
-0.021411584194728373,13.50095137740599,-1.5876525280740879
0.0038345701713826605,-33.16688048005352,-25.352309745897227
0.0156587232480234,-33.41518941113752,-13.845964251244489
-0.02397790313867587,18.452786878433898,40.183360548639854
0.007405573506399671,-39.98497841007141,-10.349095139469
-0.005855741729468327,49.62361038840325,17.144593066162145
-0.00023632360270857064,-16.497359495640907,-49.52819490900531
0.015896387202195106,-7.808798075864665,28.34894925313874
-0.020138617319126573,-49.93229222099416,-38.26904043091132
-0.02417542700850365,-6.472493655774592,-37.81611038932504
-0.017624360366532584,-2.810536599613556,28.645374860632984
0.01034904857777063,-40.40786613364972,34.751035141194066
-0.006440877643381509,2.5106126104039035,-30.119817118370662
-0.02141518848490125,-46.12042941750508,-36.18698333269248
-0.007745448615641082,11.294792879122717,-11.262900497110465
-0.012231614347667265,26.69825807007868,30.173921702696887
-0.01684002998670075,-21.75610575859751,-37.528852450333225
-0.004218320083930378,-17.993193557433273,-20.154842232380343
-0.008380498145027688,44.049346069127694,7.06512512802869
0.004542855567913118,-7.2323934204968765,-10.62539613996708
0.011192153992760821,-7.170742003345424,-40.97906282896673
0.017152903534498283,-7.884824214699648,0.33184273102619954
-0.02125673963408612,-40.396211881500506,12.65021688296887
0.001031181000373211,-24.334461607239056,-46.883884813476094
0.016786992685302364,6.833403136929391,42.93593316313971
0.015091154046338866,6.948847989904664,48.692059299667264
-0.0011850449678319497,38.77505878458713,9.25689320155361
0.021881547637106022,-12.950856453420002,24.30667383159519
0.01047999119643648,-4.236301853935501,44.55593491697641
-0.011885379929842522,22.41955401891863,31.663657954782238
-0.01916196363104086,-27.50270292967062,-20.430697467227898
0.003964064721260003,-8.754753880037505,-9.842748008524516
-0.0033325381837240806,28.3220979251072,-5.5962752565562965
0.017832755330717265,-31.217755906112544,10.984812285597592
-0.008191135586380467,37.743117870462115,-8.723698788913566
-0.006630581132513282,-8.247085202955937,-19.975645266435293
0.0004486397117019411,-23.979536392584954,-31.857541067118444
-0.00604063941812167,-20.225102099163937,-16.888292671814277
0.009173795949274317,22.317635087042788,29.566529405112206
0.019390650672437552,9.952515814010596,-48.50556886435145
0.002263476378823466,4.753387207983863,-42.05957972939971
-0.02060414077458307,4.015860416442237,-6.19505661826112
-0.007821606172185986,28.872832258890185,-27.391521953597177
0.023608244988087265,-32.201089865558586,-1.9978506499016575
0.016289601498411452,12.981890982488132,22.05529434076368
-0.00907854001370902,3.4437855976598684,-45.333591416490535
-0.0018067049340787442,-2.0263302258271096,19.311467388491977
0.002925885070222685,40.148625431714606,-30.868327898535664
0.02448444469488594,9.874291338489357,1.386090212042447
0.0033563965558367145,19.812476059260703,40.056335931845794
-0.0037990841391741977,14.084796728621257,34.7131223882315
-0.004961648933289653,-14.034835272575954,-24.39063634703188
0.021373554884298436,19.74530073653719,9.274134210118056
-0.006215710964668126,20.909170890413606,41.96133697781666
-0.010139427394197199,-2.9339661399090033,40.18503742893945
0.0130343602116329,-37.73527752164176,-16.631208206717965
-0.010787806906392888,-35.02988126842123,-20.947965909723532
-0.013853274969319202,10.680229506569617,-14.107894754387807
-0.022244031402078576,24.92188567608413,45.507508680974766
-0.007091797010480145,3.641515426193486,-43.23901693293909
-0.017517320562521983,35.34340574530438,45.036879611495195
0.018661972370644618,-29.008923051204828,45.91096827288618
-0.00656936426660203,21.10718689374545,-40.66038833813808
-0.017183356643545495,49.98325245727996,-46.25712251213508
-0.00030356277953721283,-32.67542487788987,1.7001007457165898
0.00956443359591562,-46.22146790207703,-37.21879557168198
-0.0019615316628488477,-49.857182049841256,-23.349904392683385
0.018462021447233384,-3.1563310932428337,-42.00913488367032
0.01015372157868339,0.8292475595784694,-18.599239233492348
0.023606295873753166,27.07840248927404,-27.878765964027895
-0.017154675159556588,-28.37516896447626,-30.6161672186807
0.0012324285176478593,43.02347428680115,9.702101726367076
0.01126465548108415,-10.815699683654934,9.405402955592777
0.015311733412712289,8.62886567416249,37.626868050302264
0.011435045754127918,24.329847383577558,43.826904772010835
-0.023017902302737238,-47.99534030757049,6.649650906370063
0.02227521178413263,-11.39917723505458,48.17514098656871
0.02282801198360683,15.541782909685338,42.19066124127819
-0.0180920862884213,-20.431161579908718,14.368291519563542
-0.0148750869854425,14.31601700126717,16.479874404013543
-0.017838684928938028,-37.51481754260874,9.142846572309416
0.013300028522746109,3.631945327740219,19.879921837019253
-0.0012314132564134432,37.45532479237325,35.87133415245749
0.022408752862780774,31.664550062179188,-25.919129279758458
0.021678674389408584,-34.764850739375554,14.229926859762372
0.001367418311111028,41.8678016857,13.673051164596508
-0.016342192670258243,-32.02056786017762,24.31922167666562
0.023220181966490887,-27.737245880596596,-48.3914397786877
0.016025448239963005,18.31076700505841,9.05389701470375
-0.012000751112876212,22.39014887494028,-44.10622704766358
0.011834680616315416,4.768068135638835,0.8746296324567027
0.0031715548082454255,46.317901902648714,5.467388520393712
0.010098476895080803,-2.2020255455643323,1.7128905709522542
0.010947405886106508,21.513546260785233,23.96249585084739
-0.021859335149066256,30.85273941561273,-34.08756213013928
-0.004261967358201918,7.971600524327883,33.23587305953902
-0.007132334004523427,47.71617206723792,43.41178192764215
-0.021039567213705885,39.60067569932838,16.32701915512402
-0.01402903810494252,-22.317554554914075,36.52129331932068
0.012308853042620284,0.31083888582330843,24.27359264575395
0.00866623037743746,-27.386465761178314,-33.58438810266292
-0.0006952016023689181,-7.3259313212604695,-42.86559991348864
-0.002478598667054327,-37.72556104357254,-11.039771285964683
-0.023313424593613283,-39.060683996936895,17.625669678904686
0.019594651965817528,-19.87864892654514,-5.994323998160368
0.014115587610247109,-20.342788606581042,24.564075811938764
0.007792340866445667,-12.520776905841181,-44.64587777321161
0.014316953889551579,-41.514552460177036,38.58486350038942
0.014802651181110536,-18.263220482063137,-38.18201713895911
-0.019520931846784342,-20.697120633531895,-19.202575123127318
0.023361766950806245,43.22441152790259,42.68256316452893
0.0211978492934667,13.466135631285347,-1.4068867863445504
0.021821387682183856,8.93180557022378,44.12491230728054
-0.007526945875706022,-43.78280939133528,19.265547864549248
0.007492569189019346,10.160046070562245,-12.856407010693658
0.023300185157665763,13.927771914557482,-4.604253630624257
-0.021132529883733916,16.874429773688547,-40.98656334588206
-0.015413131376744472,45.455651369904785,-25.774162783981435
0.0021163835503247574,44.23350529111586,39.04215892114581
0.02451102435787285,-5.209285527067728,40.6504382251472
0.00031903449615293053,49.19538720735204,-25.204985558041404
0.015854497211614305,13.168461818924605,43.36475374991811
0.023119582477180288,-36.00260875677983,-35.5617851286345
0.02260817920643443,33.22058634999817,1.9769673788422395
0.024093680051615968,-27.391298168275803,47.02720313096739
0.0008892246995329083,-25.512612291186887,-10.625458819740963
-0.011416783007172915,-14.980418701546917,-14.178739905354597
-0.011259490699426068,13.668617726338496,-13.356898403526088
0.011101849582566825,-35.39936251320627,-34.33405337773987
0.003923163368301397,-5.701945627471439,-34.81808637682141
0.022400554040002886,-33.59077791311709,-32.355552001526135
-0.005189123025867,-39.678336913536896,-19.48961720674901
-0.020718392909857244,49.8422467066505,-41.02876469381137
-0.01724162983324878,18.654771839105223,46.25094791506156
0.015736683441268877,-31.856830142205595,31.31546967858843
0.0039466119180594575,-29.995915708581844,-0.2287865032773695
0.011505378248200283,-2.415414666101931,24.096481102209367
-0.0031649580481848856,20.225722215475628,18.556374959047872
-0.023588288927935755,-38.32936041057945,25.867541651350706
0.0026546531143865418,-44.750641058408,11.065763602535291
-0.02465920461275833,-38.49150750814214,-33.03353515260213
-0.008142489503553781,-46.063511771152385,29.151597213120326
0.016189219329683667,42.167225407310056,-35.74816992152713
-0.014166019713145623,24.138362831079377,44.721047624416016
-0.02237681638581736,30.108583165934718,-18.435410706678425
0.011307042431539294,4.437198118545346,-32.91027322608584
0.001418789970227985,6.154928653186488,40.86880604952776
-0.018980814838473126,21.354576966751864,-38.76090361543039
0.01096356820147841,45.32300155641664,12.580622258303173
0.0003712826628647012,-25.40101039178124,19.16335585615056
0.01499041492917793,-42.03448426221057,-18.12456917199806
-0.005022198842763358,30.460906628253653,33.44311124432021
-0.024517593863522952,49.0910738538516,-42.84284118154781
0.012424456386912822,15.872005105818971,2.71247068427418
-0.013308454427106781,-22.372014861899082,-30.484849547651784
0.022412269812779016,-8.98052617728716,43.17191530491375
-0.004107091008663931,26.6436165691683,46.12781357872217
-0.01579511918958056,35.30963392397602,-16.10233217323117
-0.006971021807038541,6.1141331079429975,-12.623899826883076
0.014857505937405951,-32.937674829011975,-34.916116977003064
0.014859994139934517,-7.619889223988288,-22.88041032755437
0.0010320904867007763,-9.964910790457104,-21.484267233381317
0.0034856103071572234,-22.244389519799057,-44.385992065942325
-0.021875603006490458,34.480769123763665,-27.55667648000417
-0.013139055240999337,-32.38081906236263,-27.626055628325485
0.012773094341536194,-24.58000169436533,20.76143578913556
0.0031773638478601873,-13.189243112389939,-20.989648114255356
-0.010946300955888472,-7.114854828958514,-27.238972105156932
0.010518692433293605,40.4711385462532,-34.266036327042556
0.02148009461308839,18.133556588722954,-2.5741503495137295
0.012060491344124423,-35.68491528709289,34.17738005011796
-0.0011322308001241628,-16.77913102208968,-48.51087426554638
-0.01606933658286091,-11.724672881361585,-23.746706821572605
0.021001416320093745,-25.01339736688558,-20.60362606051308
-0.010891006142902615,-30.327871574061106,-9.691784071496066
-0.01755594491053843,-43.508933662603155,1.7858269475007376
0.01330523670812176,28.910404433456037,-15.660630716897018
0.005772820242025762,1.9219893764021307,-19.201048998360946
-0.021853631714265978,-47.00635919388113,9.262442662611278
-0.021951774044783864,41.98721681745528,5.24232555005517
-0.0035722932097335056,7.079172883906558,-41.95497435854816
0.017931183824217954,-13.999194592103173,32.66148666449649
-0.002522579793141678,11.041015544911438,-14.095853665641286
-0.0051486115658325345,-4.378034986916504,1.4350338692008222
0.009469515022794181,-46.02233308463849,-13.941840143393755
-0.0016005181107703222,5.32256666745382,-20.421932456213867
0.0020528184125345253,49.30113502802243,21.8423293194995
-0.01826116042652195,2.287066739191836,12.40387452859374
0.019561824902740617,1.333368298653511,33.40837585150827
-0.022230598205484554,0.7214839892207934,28.83854055655388
-0.018886748989723312,-12.422587915383396,47.952766653654805
0.0034191327628716843,-1.0862247234344622,27.020204342846483
0.012395234263112724,-36.60033221446915,42.2139906386914
0.01793979165199857,-42.446552703249374,32.00606224560917
0.006156325482266627,10.882927049215851,-0.603834015596405
0.017916044172332522,16.10819838189353,-26.67906481844152
-0.018788980792028162,-27.40379701771377,-30.142261538936943
0.017807930138755645,29.05475145699883,49.55873782099091
-0.017865869206655838,-9.698478078416848,-41.64747918055919
0.006520966495761185,-23.051662297406615,-11.258233296465711
0.02376154961442095,42.931419304766195,21.48533354299269
-0.017237399066196576,-11.487562391825165,6.1317862789876045
-0.012835538996818842,-2.2467674306086067,-1.308711554734721
-0.004945424304030027,45.15325311813115,-5.018023593382381
-0.005112020964014374,29.273035210378183,45.14860552650582
-0.0035510933081163362,-44.099348825196074,49.296968787611036
0.01826803872655995,2.2329535401688787,24.998367610566973
0.009252926366472847,5.4078925461471385,-47.98181431895598
-0.023159724416932426,-46.55063563274771,19.84328873288726
0.014398869648328254,49.80275964496386,0.18216257556868953
0.02073811485156265,27.69633969331811,30.010976103738216
0.003738728304524319,3.5864640608721956,13.15270297698823
-0.005353576024690436,16.51011082061936,-45.30735621772721
-0.019612801571951284,24.37557340077086,31.770892975291915
-0.006856536493345177,30.114120304760604,-10.11488086407045
-0.006742942236457189,43.532882121351776,-0.22243590270240077
0.010820784015314673,-32.936879688603184,37.667478632759995
-0.012214749978281748,35.70332474460962,46.428043486153115
0.007171512477635152,-19.38198649066961,-43.623713932366805
-0.023488786652714002,26.823658884338442,-44.14779097918331
-0.013240700708806964,-16.497167653838233,39.58240799017601
0.021754691009755543,19.361313414021154,-27.32857497569592
-0.009742462782280976,33.85091360838672,48.17169161544659
-0.02054910008037928,-33.01972558801172,-11.54798791675504
-0.01040500516919089,15.532673000631505,17.33548954227686
0.010875974939456703,-1.013722353219272,-0.5087679805486331
-0.0037721380380773377,-25.37192744369474,-23.05162826709488
0.0007863652800884358,16.776241686423674,-32.66312951425229
-0.022821576292550307,-13.234576622673458,1.1279083631277587
-0.009558648670833687,0.06499928515496833,-47.699343920652346
0.021784830599562828,49.174739434018036,-48.5758178560315
0.019356100996367594,39.915569274007225,-44.4587924306806
0.017700017891592444,30.25580436599992,-35.41517994954655
0.001128156093795095,32.741729274423506,30.364367545965564
0.018155463748889357,-1.6831812386576956,13.779118731745655
-0.013811649188266363,46.76649332861177,6.821407025978679
-0.02412849135510403,18.92332124268647,-42.12720663046008
0.020433353092866403,8.743059541781285,-15.852655869629139
-0.020336369719370168,-17.386124394278113,27.362862255195665
0.018297484197412055,-10.088949218384236,-20.074370304464406
0.01381616166343013,-30.361762071042442,-11.991703759807294
-0.008250480368167164,-37.766948687385984,44.273686428855186
-0.02298612076221907,-21.252127094270822,-32.18713715149066
-0.009070768455219626,-11.992572124868481,31.095039316595276
0.024822626470006846,-47.56010722242755,12.70578611445687
0.019772391392942013,3.5144752383583153,-43.47546933979817
-0.021029295419576752,2.18954992432554,-38.34377942578443
-0.016068285849405978,-11.69747819882059,27.310067629629074
-0.005928129300114864,-26.7217896151,41.165779119803034
-0.023831687998575293,-19.9801800134899,-21.604401886245306
-0.010326732070568629,-27.75635823103999,7.027017337452477
0.01719208715660331,5.474977392560788,-44.558254926276454
-0.0164519209846903,-1.2195176462234372,24.071582242214262
-0.012046603266781659,33.00274666745466,27.35211987323622
-0.002285759752810569,23.923162307922794,2.435316098474914
-0.007135050071081391,-49.05461040977212,-43.75538516107456
-0.004096303163984495,-1.460791070283726,10.259656252832436
-0.0017268806063392324,-29.89687431588398,30.26946591709944
0.004423991680865401,28.577919907049534,30.585461685379727
-0.019766339458521038,46.11313179000972,39.081083664677905
0.020012376801829213,1.2673924347530203,-10.15861065619972
0.008729139022715014,8.763613693375348,-20.96790423255561
0.02112519304408325,4.056194358014999,33.95829245841716
0.004659515184763114,-14.064455083500768,-7.391149413308796
-0.009842541125950894,-10.833363430309525,31.648570686387927
-0.019213302319933456,7.802187713073458,-1.8448829780367788
-0.006965131473308267,30.34948942022197,-0.6726675947285727
0.01983705285332655,-34.87560487738108,8.430782677068684
0.016028659726555934,43.764671601970136,-44.515413917370616
0.02041880397171538,41.66325030108929,-0.14241549544657772
0.024552976576382286,32.79690699687097,-19.417385170619816
-0.0015014669752740802,-0.010637161422913266,-19.15485998192206
0.007511894373683818,-37.99470762890249,-20.70821064316075
0.004548541209938407,-28.248254033522624,38.96264050213277
-0.019810513217949313,49.24624474162971,-22.986044770025117
0.0006682261938991581,-19.524898428863047,6.9619248483656335
0.02108661679698829,-18.236374702457102,24.364863962243874
0.02202342514380095,40.094009670060714,-30.874278907278686
-0.009348122595958266,-46.547783955405144,-4.497767837925991
-0.01808719647423925,-3.149994777335877,-42.152230223833975
-0.009409266874371503,9.548037003510565,24.86758178226303
0.004919263308950362,-1.9771377852776695,27.95361038331538
0.006027809144788742,-0.9035720069771074,38.703535530226006
-0.022115414007012685,-49.780175380656345,2.3909692081397225
-0.00532041339934931,-23.2042490141844,-36.745645965669915
0.005799817276279418,24.387003651733067,37.32612014755114
-0.004793812553570826,24.731649447702267,-23.241996433721322
-0.004791948217293129,-44.08843747729472,19.435674073866622
0.011213257971188093,22.767831524388257,-33.92150126599908
0.012154310043632571,-25.799115632186933,-26.376480474882648
2.1045489947663087e-05,-16.460222194367176,-14.232629530980432
0.019703800253576147,-8.455455869856777,-21.52497673033863
-0.0006064001533363853,-4.753174512901616,-14.925562666061332
-0.01979130386851698,-0.5372300166923267,-49.5714197762829
-0.018701625947065266,-38.338675430275195,-25.52687038441659
-0.002265437294884421,24.50659859614072,13.190326115708238
0.0027945245964423222,26.06289124043502,-37.46527487354404
-0.02002415398783018,5.151248578441539,35.925541735354344
-0.00492560287231656,-31.427508939784666,-30.164850431887924
-0.024505538792684918,-20.216746950775832,15.822900111640408
0.019311718879763413,34.49729887644632,-18.042166151388038
-0.0023452633083037473,-18.103427305441734,-9.590669035328226
-0.002800531221805541,3.1092123686603728,4.443391840089326
0.0005354038476694974,27.942599598904778,-26.308205159552813
-0.01226371309160404,1.742016609859789,-32.385035003316666
-0.009475721823038526,-14.281786183089352,7.711967226558691
0.010762459462345213,-35.3049169894924,39.54559171621594
0.012312301309308452,9.01223695816087,-2.7734923688366138
-0.013964797494833937,7.3498468355010615,-24.861690149232672
-0.013730236728377965,49.304507805586155,-11.288167459740947
-0.021340179303788117,30.60295281709712,-46.77344014904206
0.014099182894957256,-9.657097765436873,-29.217915723497146
-0.012884172233276881,-47.879257045667046,9.513778628901605
-0.011499837461354679,-18.580593859332907,42.01935153766024
-0.005055317617796255,-6.3441027352936885,26.192239891907732
-0.002763638621660465,6.622073133148618,39.83679442209659
-0.022923067692785012,7.031600252227285,-15.105023735659472
-0.02163774485900473,-18.35730987571651,41.02863951164012
0.011263644170823761,26.514433405882045,10.305093629019723
0.001040674668553683,-17.46768837582784,38.2703483471641
-0.009857482180393945,-32.3909911101717,-0.54316877961773
-0.008839089794198295,11.640793755051106,8.75575806750112
0.010161479438311846,21.415964722790164,-30.779028929823394
-0.016468106559133125,41.319187257035395,-7.862748931904285
0.009185916854844295,-10.985102252703385,-42.698543022385834
-0.01232074738440972,23.44022107869307,18.596603494985786
-0.0005610202797850725,-27.374101029431262,35.46640854453162
0.0185223930411828,-40.71883652720986,-6.044314743276857
-0.01571312114652771,-19.127497184775788,-1.9479847143324491
-0.020931764548714524,-42.35821142809523,23.114122141254327
0.016119164465453667,23.166022760785083,-35.968533338656805
0.014694605652456998,15.11746847115343,-0.07347708669549746
0.007476887268113151,14.184026412366705,-11.792689213624676
0.0046304499747479196,-49.04462785058664,38.01576789613388
-0.013753638610306929,-4.064009672758772,36.94154021016871
0.01616702520462767,-24.806792113834362,-2.1539681491436156
0.015528619645100612,42.670923508222856,-18.21772036722187
-0.02112150405982073,15.70872644574358,-45.64816730694326
0.016599371975959815,-24.222187751778456,11.967783803681307
0.0007572445892772839,-33.073133663425395,-49.43488987229981
0.005440921779600604,-29.205769187767395,26.409679491751277
-0.01687169727609033,18.64926453777882,-44.79587727836103
0.0004968725214642769,13.422695285973198,-14.674416124408616
-0.006136235377413708,-25.759890172573197,33.61075125951943
0.02335389963529859,-27.01792883427858,37.002897729089895
-0.007626731479488415,-38.435421578505434,20.060874188268542
-0.004544085662629031,-2.7748842013449604,-41.41019961871856
0.007720201840587575,22.001353426274775,0.18284018152273518
0.00326504060247753,-10.609590627882525,-17.67449351485582
0.002027358694529739,6.952420113780619,-40.342746471218234
-0.009503211735742024,46.77268132526888,-42.40770732501288
0.01381603692433473,-42.22923222711066,-11.951554000548605
-0.007562275842313927,9.793306546313794,-27.254616796013774
0.019559770089462664,-21.174422886572085,22.4630977699792
-0.011407226022965289,-44.54117517729288,23.285689158769358
0.019633464686658116,-32.28952441476575,-32.09875593611168
0.011482241615715517,20.52128013694272,-29.708080653473402
0.013440919166289582,8.232024701190632,-27.745905072050913
-0.024225286657828318,-3.380922643636495,-19.751247507812153
0.019995227280970355,20.618312203091293,41.13284649764209
0.014064425401817203,-42.40061328525303,19.64982086227596
-0.008759211914688154,25.49607352800355,33.64796941999745
0.021257315046156418,42.36343268079375,-21.945947787869034
-0.005938153283925059,40.04296039200946,7.734088431093731
0.012002741223828758,-37.036359737579126,44.31751941045408
0.015634926400119063,29.518211716882163,-38.047377934677115
-0.0013280874382481204,33.71025512228573,27.260646860785855
-0.020573236379828108,29.197063487059708,-18.28846648141783
0.020964355230096626,25.55574853584787,-27.799220585015117
0.0014010663031957735,-22.162623333777333,47.751176475369334
0.00724447510780965,-25.806507857457163,23.12669108245055
0.016124647196773943,34.332780608756195,23.05886580915093
0.01637019379008358,6.242584432521362,-18.788885321310456
-0.0028477645715906663,-25.233696384698014,26.132325499752298
0.009674462928722032,-39.17642705359413,45.39388328150973
-0.021718113463582864,2.0430746116803817,-38.22531649226448
0.005398145850103488,0.534602955035723,-1.7429630058680559
-0.008826378568094245,1.2050377843260662,-21.60149846131413
0.00417843134192946,1.8253625794810517,-22.900767399721733
-0.00682724770942052,-33.93424739514638,10.917099569041575
0.020308430675377687,42.11750126368388,24.339387575651656
0.017696577674884424,1.6598259432618931,-38.98875576991898
-0.017673446480520057,28.47437695714477,36.99083192466968
-0.021385344048235517,20.604366861657226,26.459114786888634
-0.0073433608572467494,16.732744947755435,-28.635032141787654
0.011335741634575576,-17.820859983843043,-33.333585087089915
-0.020022435179642795,27.07921151168685,44.42211725569935
0.0014853805673247858,23.279447482674698,23.37887460590396
-0.015010349008381475,-23.1151998520554,39.17014526098018
-0.024999188638798128,18.92183508490487,21.696322150512387
0.004279586258618719,28.265783589219637,36.08684478250713
0.011550016676178401,32.61730915211173,-8.324984211887411
0.0038271420472780378,30.64733239445097,-2.3080502188008296
-0.015045823131167825,41.36351983301499,30.84661552809355
0.007460198470831028,-24.769092797568028,23.43289960055668
-0.0073231422193490055,-22.32418892795751,-7.341099688429999
-0.0030763802225854953,35.64612477673931,-2.642518263391956
0.011807402631267207,-24.049720813796093,-17.514372580548375
0.012388752315661528,-46.451823776367775,-37.095146647359854
0.0024939236455724864,-5.246062254017211,35.81129163837625
0.001368279082878253,-26.99904073203152,4.633543959393002
0.0002023732626319219,6.652951715528346,28.160180093977345
-0.017278554055321776,11.265890928741499,-24.70342293554102
0.011776025798182106,4.182738323703482,33.31306078261808
-0.0012511453850331741,-32.32645633554161,-26.522215958706408
0.0047190436116368965,-47.05531067485605,-6.393855202994025
0.024995964193955528,39.16372299428666,16.639649435146367
-0.007069332420376641,33.62032510384208,-28.945512779957248
0.001503491356922921,-42.6044448044702,1.968562008959296
-0.011206590751972412,-25.5935339782412,-17.419481252714228
0.009908249642060087,-27.59138894197172,2.396113599129201
-9.520453548260768e-05,-35.82799954612158,12.652503827372044
0.00845091092539687,-15.378061007082742,-36.66420491416722
-0.018423677957629076,28.225617433951825,5.905773732692573
-0.004355674850144757,-29.466125256221297,1.1605592737453065
-0.0057987789724300125,36.03818706156051,-28.17878548340058
-0.02102688100037908,-1.3647622078286759,33.85359263828707
0.010931259860697491,40.05429250079089,-10.517763377381769
0.01379472601041222,-49.70609583176343,-44.915501914634845
0.014598595190438483,12.602349359210741,41.5784912885494
-0.006084475046477973,28.656498450016016,12.594842788340621
-0.005746342899470146,-17.783461153413313,19.491399711993424
-0.02228672652444389,-40.18215256838413,-45.56413738130366
0.014994278254462312,36.771358283231095,22.222324186404975
0.013240236294752843,12.97914551993474,15.255583090374287
-0.012193531792252205,-8.772266341382377,27.29034966708477
0.024462585248668893,-20.249031161289565,44.538314620556875
0.0071452608848113774,-31.524313567974836,-34.18246394976491
0.022156643587976387,-25.62765395253248,-21.153291402447383
0.023342316342420226,18.693038953682304,-3.380955530179996
-0.02322370839238838,-28.276266053383704,-20.82996993992254
0.015919498153201005,22.958913111408506,-33.424924126252996
-0.02161616069514948,20.472592722384903,-37.586461329413865
-0.005793551672930532,7.454313751569956,-28.080921531381286
0.009491957328771776,-0.41876938198057445,-31.82870431262955
0.01850487735029315,-47.946850557540756,6.8979341186156375
0.015227293427598779,-14.68557825991121,14.820912709047747
-0.024517821942351095,19.46016399996371,6.528045282028273
0.007908522302222498,-14.964231497008107,-0.08203419818111257
-0.009573503659129408,4.908793291953138,37.10965581708798
0.015570955693729467,-0.31384914354954674,-8.167798968573322
-0.0006611877264284804,3.4682074632121385,25.772495963236537
0.020558101035288094,-18.39043333707998,35.514657843772866
-0.0026210019882748417,27.274961099538004,3.667503853283172
-0.019763855727023234,10.64900569140864,37.49117757708517
0.01011198891208806,-1.1741862618570025,-32.41734587933701
0.024448416644518564,-19.615667811344338,22.707560325207155
-0.0015342037960121672,-7.973121103654556,-41.035088255394534
-0.01072123616919552,-44.925456637547796,45.64001413331246
0.01784106294960746,-11.751733866917078,-46.32605761401981
0.017927181645907578,-21.891914558336023,-6.658448553846533
0.007206332649662438,-42.47060934297644,-11.307169677596399
0.023076872781303798,-31.80400130576555,-8.062877030531112
0.022540287697884902,-4.124395370274648,21.087758186860682
-0.012878332062321408,-19.945418108382405,6.786057351514266
-0.011526534741659007,16.348830220979394,14.290112245457749
-0.018140918491527925,-28.22039978947355,24.411398774985244
-0.01884171887866742,15.623540358561598,-26.176639300133708
0.024915108642722075,-45.28311738694954,-8.6955685684553
-0.019689461189917486,17.788397115951625,-25.41037172396927
0.008722010153603951,20.27051467720851,30.285649904486903
-0.015268071585916039,6.054337739069915,15.298025436999907
0.0011635739258613054,-32.924858721372516,-22.594682782429544
-0.011449352478694342,41.37333804429552,13.025271443524765
0.013445572160369658,-43.08321734721066,-34.97957970311789
0.024337076144345514,-4.156351117528111,31.913872802248235
-0.0015182735928767517,48.22402467489252,32.87876818925645
-0.015179083595910026,-37.50032639440029,18.611278341459766
0.01686969170678866,-45.4663017682116,30.939548116223662
-0.017674900542541824,-16.555713087911563,18.098778034254963
-0.002412784466357582,-19.653964342381258,6.161809319414772
-0.011843988127194938,15.324986658641762,15.403552659221887
-0.015722023046027406,-5.268173790627415,21.339658439116548
0.024501826262922348,-1.058891210121061,-28.93699474917164
-0.0011965772031275745,-23.904581758175848,23.12592442520514
-0.017442005088173302,-42.54641331925133,-8.541299610850473
0.0006253109699444551,20.731215259264175,-4.1156170739755495
0.023017188129820912,7.755996413000112,41.966652727482696
-0.01597503372147146,-24.085029114307442,1.5183903822974543
0.023839861718489987,-2.787544140556477,-16.755822845510338
0.010926361299264976,35.482451924504204,-7.689964164131368
-0.017304842971552353,-38.75196585292166,-20.92471256345445
-0.023319157962397925,-30.012186741769252,-38.071085453990406
0.01666510885938601,-36.966514502179116,44.68469034955761
-0.024845714375710037,43.26662597356356,35.68681030764232
0.018503826023312457,22.39744239828464,19.42649440273027
-0.0031985986626832663,27.346408423920778,-18.316230536042465
0.01461316861487226,-15.420824317572126,14.542582805203338
-0.02207399639340904,-1.6697643742491977,21.78590309783901
0.013632317420227462,21.915774927518868,10.691111755804506
0.0034015804922503737,38.30512724742847,-7.430276875303221
-0.016957684263468262,-42.23754464611514,22.195861225340593
-0.008619642730263787,40.518356228381876,-38.90969668269523
-0.015751774360804875,19.20589083703304,-26.51676894813628
-0.0121270016508173,24.387819387224567,42.390963824337675
0.001329986647621139,-6.41863788811029,-22.41643040905692
-0.015205565063859644,48.89549505622995,-47.87235810142803
-0.01218977113156134,-30.769201951649872,-28.92937740424021
0.0058472608652764615,21.245252688763586,15.657929429614242
0.005653699718424499,36.47254009893598,-20.342368581417603
-0.023347157542543163,-15.399780610607763,-15.86021316753974
0.0009940591326840775,-49.78518283591167,30.938068301101566
-0.010240497480810497,17.962478565774546,24.327106540833114
-0.007598828029166799,-11.73800045177353,32.53169107109521
-0.006577342919408726,3.0484539611163797,8.459416263492628
0.003267704828837724,3.8480168469966713,19.715569266062587
0.006085312109675545,-25.40055929036731,-1.2869190277586853
0.0021814743581268677,-38.93875408329694,-33.19995145308753
-0.009000750755414077,-31.143239670122103,-28.705314076046516
-0.007989997684426663,34.96604039355748,-45.06270837900603
-0.017659226947120757,21.62266978198126,-6.359141941975842
-0.006431692247401789,-33.267527209058535,29.32664070392896
-0.004623081140106768,-1.3109835310416216,24.68238321089271
0.01759400999090721,-43.77454877298089,-32.00617185101649
0.02203418676641073,-27.403928388356334,40.594850368277235
0.02461627484817102,31.994025885821642,2.1800901299404245
0.023950564141559223,31.315974639935945,3.7066084270789617
0.008673578672774802,-35.41567249050307,27.099120353962363
-0.017016711704672415,44.466849951335504,42.433136038960185
-0.002153688339799724,-19.49151337229894,3.0570442251992915
-0.01748276818285749,9.119237264842852,-21.640329970368033
0.011053311289803545,35.43798621338932,0.43429680463945886
0.008574175777777075,-39.92325531278554,36.63692528603315
0.00589854232672072,15.823800466621734,-23.809902314606667
-0.01813097822764567,34.56835864494528,-21.597405079660604
0.023910860880494454,41.83640405541334,36.9615360714111
-0.023611852679886827,49.82560787782259,6.371738934438767
0.024081139355699825,2.2320173356321646,11.307853297996864
-0.02283285614378578,-35.23121404136648,28.097620802364958
-0.002588583820050599,-15.329876245277518,34.48956929760874
-0.015648547384668025,31.779144521948126,9.81227036813025
-0.02282454783288594,16.77406477858925,24.071870000831353
-0.01918044353822848,-0.28133978417002226,25.19815342192669
0.014789384458486113,33.86255649598428,-18.64205101959383
-0.02493291810721104,40.16241202679237,-36.898894594632466
-0.003955482164707209,-18.884816235688994,-1.5882012851194034
0.006806540960399066,-28.336962399467637,17.237738757994563
0.014266512424447118,0.038986054159963146,46.6129295702122
0.02105561218043809,19.72112294568005,38.18052858429718
-0.015925398475259762,29.263539161644232,4.541832011415735
0.017632069569082025,42.705165593108106,-16.89953190898138
0.024922157315738235,-17.17459685301452,25.534590143509476
0.016212947477233834,-47.96194485545341,-18.607817100027113
0.0046255398953072915,-47.07284808591821,3.7818613059406943
0.015238829380320507,18.664686007905033,38.31444579983253
0.003143772524244165,39.54051875590349,10.7542361639699
-0.006937131837625961,-48.748432132026274,-22.104803263263793
-0.012865295887060502,48.46993533126813,-38.91204796494109
0.017942020650054125,29.7099673756928,36.82747486859641
0.0009398935195275189,-7.169313441813905,-27.57327439801527
-0.01018685234345313,1.0965158526754806,3.250706100675096
0.01497523473443118,12.552616037334175,19.249354606584333
0.005839650139225251,16.235377828931192,-8.900697531036059
-0.006141064108416926,45.0127711086289,11.620291836100385
0.024979568026018376,33.67647926120587,37.44136986755869
-0.005817062429810636,45.94442107439258,-23.015327351149196
-0.0008051121859222569,14.12245703157997,-17.454821948327584
-0.001701869687587211,6.29529128441898,-33.569923237354814
0.005413764310342066,-39.09000520851157,-28.32385616625025
-0.01576915005609477,7.320028733883575,-42.8853191860213
-0.002980284991473431,35.99160046587819,-32.70281868443304
-0.024836376030728243,-6.792618727750096,-25.470692204368696
-0.0016093568405431968,33.407739366259676,27.366228005121272
0.010734969053384474,-6.192987984511291,-19.454279719260025
-0.0006961002930647893,43.74705530887752,22.178182470528682
-0.009644120672157308,12.825754414251087,11.503848666742975
0.013124483260395614,-36.36256104926097,-36.49197934188698
0.018478586655966543,41.033327619745705,20.02206096835421
-0.004510208540661448,34.71159094056155,7.564704193687099
0.022269814744237164,-20.146446791721615,-13.697575181858838
0.014972217062588639,-7.426004208451872,8.233565023286161
0.000564827505877153,24.680909516889344,22.705061750291563
-0.002548984020318494,-28.016525565613914,37.667160346287105
-0.013373775932581084,-34.68099859464403,-33.7352599383825
-0.016513281238853334,36.33674596845705,5.376145489049797
-0.014105618610634287,40.60054587334406,-33.06232747449498
-0.007073855733486827,-23.774970086872717,-31.684061292278763
-0.01569831552158664,-28.787967138272673,40.738326737941506
0.007745585517431999,-20.97239923513913,37.72888062619482
-0.02414727927248376,-49.44879700972661,-16.52845844081505
-0.0022573158764521255,14.462541969547743,-41.16740322254931
0.0018381108686162315,-27.213063998969844,4.581602745260071
0.0001538296118022038,-49.8079345210878,-7.432501676460468
0.006305256958999458,-21.174701393936434,9.686861544085858
0.015464643433575537,1.7211786282937993,18.80647226422036
-0.0220994831827572,36.206859292965845,-46.27705019822703
0.006771654683685638,-8.777428657584231,42.93488279927274
-0.01923427086017078,1.6881366843623837,-31.792451178206637
-0.019901279136089675,35.65434363506998,43.408369003406435
0.011942260635366936,17.77349111024283,-20.408720647585167
-0.01951339035531855,-37.79700049972526,-16.868548419812676
-0.009749999697256269,-19.040492502222005,27.15938548180236
0.024191167100852416,-38.60410025565242,-38.54642545654975
-0.019907577393559944,15.542748465713629,8.697420902802698
0.0002703754511918892,-49.6012158029362,1.6648768795307873
0.02013106471068179,7.233230024717827,-11.605344190004686
0.006891799037193405,-43.690074204314485,-15.740216215005852
0.0044964919837734985,36.89459681628993,-35.918329537342295
-0.007012407520868014,22.75992704462034,-29.098929495086455
0.021709809497681462,35.32227283360612,43.28774974297987
0.009681113149606832,27.7010351588671,35.308209093705074
-0.00473544542990887,43.27355289944161,6.627426396206246
0.022931579114348698,-20.278092651013523,-24.230725177264755
-0.011393439335909961,37.71228717847957,-1.6151221451500533
-0.011014358249913526,-16.948501209469903,35.786013768862034
-0.019852336378715214,7.893389685113625,-31.00293297822424
0.01407131840686731,-2.328967315394358,-31.44805456299249
-0.005361893630203545,-30.308854797933403,-40.30647730164965
0.022038500538753725,-36.04195969853846,-30.616889402373015
-0.006170712403206789,11.323820261311702,-2.5047571767630927
-0.003923952904722704,-36.44253981329058,38.02570041096067
0.00979572105914403,-17.37962981622435,23.92225387944437
0.0072496860010657985,-48.1760906548256,22.5547376567158
0.015275742256730417,-18.710066114846747,-11.64220347369264
-0.01460204087278923,-17.24854225178334,-23.97554372295101
0.003475333833252235,11.231281724363342,42.34697118218254
-0.011232910078296472,6.130873714858211,44.64928982897251
-0.00027815282664515537,41.5764969005716,-22.845085647412965
-0.005194551860378975,39.884258316015234,44.958072460664425
0.021314862199952822,-24.833806120652568,30.46031394712753
-0.004930263484078528,47.34414001238588,-48.88435058877975
0.0072804708810447,18.9590122926234,32.11244066158197
-0.023905908342365997,33.838707383083175,28.880948628141695
0.006506735445871027,26.523552513216032,-15.420422134135002
-0.005188881488920882,39.792701127155155,27.924950180089056
0.002467479894731818,5.975926824552388,-29.517376457389453
0.01733988926894743,25.545211333765124,22.938102974751573
0.008839846465080355,-44.21436784823176,2.138612276040149
0.016738232628775017,-15.838016893724912,30.338166757886896
-0.004093807007289434,47.991078037162836,-0.5472300168954263
-0.003038402807164036,45.632426523911306,-0.2989801161983223
-0.024363026253889565,22.64615639528745,-15.061692489349895
-0.023134151044130705,-4.552429018012802,-3.2862586070231643
-0.019943615580434056,-1.3074450408498066,17.756925956498662
0.021157166490038744,30.765408684744926,-35.140569105063975
-0.0014631711844739215,-31.702355875802212,23.486906733038495
0.0241783357828221,30.013665854678777,-36.827275125722906
0.015049759914037418,-32.919009887755934,41.469780367620004
0.01991442452909698,-1.6178229270535667,-29.472487247627065
-0.02482283212282437,9.375140125818447,30.695436282113505
0.011087525816592295,37.02813480274911,4.717212031602337
0.002243739344444551,-40.71951859605725,-2.4403719325789126
-0.011936437216496776,-35.5368641272404,-9.191514518753067
-0.0072764733937672535,9.558267253969944,10.132052503591503
0.0062064522415608905,-14.402446673092854,22.512246268716694
-0.014302496320995985,39.763797173276345,-5.447469901107738
-0.0229853252298585,-44.434413511755565,38.59213716950464
-0.013403185134618462,-19.34211252321728,-44.64220606131419
0.02008957014526297,6.8752241375823,13.662362221171506
0.004327401558619749,25.554511433093793,-39.95643672393556
0.0022155579477820264,17.832320602475676,-46.09904403371722
-0.009887633438550975,-26.476192541001875,-37.07182899490831
-0.010561512287461678,46.01111848144008,43.21875157354023
0.014737558252966021,35.28332090384197,-41.3074502249666
0.017413358366856084,-2.5617505133564293,24.133777670780205
0.017431074584941565,24.53323746507374,7.612260572178364
0.014867839583774023,9.96120856072642,0.3337450848446579
0.005730218759762713,9.414565884899432,-29.185955333485737
-0.01227348467141452,-25.835882237607578,-16.464213470801226
-0.007463751232052018,22.735767727530742,42.17395299593578
-0.007042682835802113,-12.133172819988758,20.237090981641188
0.02342172790266033,17.902315115407802,-13.070130712774073
0.005893218728179956,1.4208729102399218,25.50388496660449
0.0024854895470339707,-17.397322331028654,-12.580870370030937
-0.013788826039554053,-49.77541362351812,-43.91661474765194
-0.011441073479446014,38.53290441652358,17.9473784465402
