12.296970606165644,-0.02178856696456899,0.911368242998023
33.65929779739237,0.010949595781914748,-5.873312615815209
20.619049910287686,-0.018876515710776483,-18.432318002808746
-31.708976795696785,-0.0004660916801206387,12.805116236730598
-34.34474920474314,-0.014011704118912128,31.61763291210481
-9.210875968053578,-0.02042299706518101,-41.61789908584449
-16.760998539654295,-0.004755237795001387,17.269630509313714
-38.40257011942426,-0.024071387274171137,29.95268698196965
-45.00787786078423,-0.016483572118027118,-12.27630073270133
40.34351538727053,0.01621353373604719,-4.261394543223773
-7.91534523415276,-0.02207652564724405,3.6724974522529124
6.957787640081804,-0.011718769118669559,-27.6864414670568
-41.45598955969911,0.004461765355715779,23.689178209748405
-18.578414976102675,-0.021171728101773524,8.864031888325073
-32.53252271668394,-0.02101516774475816,26.38168111399895
8.989491996444677,0.0021509589425219577,-20.39666995331868
-27.078947041172807,-0.005731368688778944,49.42092259908921
-5.572435584168559,0.0003047373404140019,-33.27697717434684
-11.211378263357197,0.0037419520604253034,-31.502894625798806
46.9441536918023,0.010713957014344314,44.75396634540297
11.308874187924467,-0.004746688562153434,6.189623822794601
-3.7661157734014026,-0.020299108732636618,-45.439400409033524
-27.57453638829379,-0.00795951764900436,-35.50881042070006
21.025042362581516,-0.0009652235888920266,-19.772558607795034
-16.79067497421662,0.019477172109804257,-34.91668880068606
-46.50537557705935,-0.007127865335766748,-1.897341017983159
21.854761335975653,0.01729303037721617,-28.58128004756928
31.761343692732822,0.00033230559394629294,28.15953353243377
5.250318410885704,0.007540668066317584,34.57551733524518
21.042438652200474,0.01156306988417656,-14.387714842536738
-36.13816072207562,0.016228736046612978,-49.320018946944145
40.2784780158934,-0.007333918846725768,-17.06612595302316
-0.17178727960671836,-0.016956916623078737,46.60872228536101
-30.216016806239743,-0.019855540809670388,-13.91894754982875
11.745989798208193,0.02423338453698754,-37.78521431504609
16.500450273116414,-0.00038947123576192275,-39.019174423664815
-47.95847398803744,0.014465328506172145,36.051496438191776
43.45637884720006,0.022883299487799512,39.828021169671786
-18.065816414414194,0.022314035102515943,-24.396794234357454
14.056261564789878,0.004462898679481176,1.865342790567361
22.698502538979298,0.00815595627807679,22.33339253001813
26.942097307524648,0.0175978296062135,-37.25513254948982
3.7668556264470183,0.022357997052026617,44.13372514617622
-6.39994359812944,0.015189143658799892,-4.345171953131533
42.35898669836331,-0.002810291123088393,-0.48747654852738975
32.73057967992831,-0.021707510354711457,-5.014811760124402
34.52904260887935,0.020594861757299743,-17.374907414768757
1.4994035801001218,0.0009348364863146705,-17.39292606565931
12.991422784426398,-0.01080023957746012,17.41361617094948
-13.897506843943333,0.006191219359194245,-16.902220447776692
48.0588401976096,-0.013486513988992123,22.25762755526027
27.665354963870698,-0.007309132265949238,35.46740877021628
49.50660019199822,0.022348687731701865,24.664970558721294
-22.06231348029878,0.019326141282023583,-3.804485592029252
18.45550427311919,0.015643118911740278,3.115579679288963
47.85895100716408,0.011501176251347021,-30.820305918462367
24.32188095609203,0.0244078927201695,47.40844873102684
-3.1566734937272116,-0.0013561951683980708,29.353544524608864
-41.540561655096354,0.019526587531464183,-9.00006101486396
-34.272629230526576,0.011742383178242707,-9.354011488358758
-14.619482060768838,-0.014664092632318187,11.074704452485697
-16.920828661398154,0.023070020510591316,-19.665216501400597
49.16674893120167,-0.018311861262427155,48.312702078681525
-30.9174791523244,-0.012532426232330668,33.74938833492841
45.12945833372038,-0.021933419597411897,-49.151818562929385
17.87840064485016,0.0014461984476887776,-47.08469050384093
34.42390863613477,0.00010859153720139611,37.15623844156892
-29.734845661911592,8.933144196797069e-05,-10.953502751109959
-12.586016997119188,-0.014088871125696373,-41.54990037069298
3.285743415128863,-0.002643201698677905,-24.466109309773966
-15.651727816086655,0.008219298137102114,3.256193657715066
14.689327027277699,0.008808364307084988,10.832396270822507
13.569911819394065,-0.010107629502164145,20.119049902321933
-33.04374280616965,-0.020826768096077267,41.13326957607171
32.030552958147,0.012459288150599851,-31.676651282256284
-43.74833275139288,-0.008142196570503423,38.342944622177825
19.307235875933998,0.019465886236853004,-33.37915828962714
-4.943098419825773,-0.009729476166582558,-8.943340586752605
-19.359751722055453,-0.023302220584162855,-37.00863896652091
-36.79922438089115,-0.01202905209557157,25.03508506657093
27.86429774919877,0.023750439583773576,49.21442719081584
-40.156767018325056,-0.013122499814884737,-9.524894477774204
1.5811589393318073,0.01635382500732161,-9.652970116588492
25.49926772744837,-0.01614353427591767,38.546024640112364
34.27624580047001,0.02091581162488556,2.316535414059608
-20.24339465208218,0.021077472825843546,20.99380239209262
31.634879312277832,0.019714167401228493,-38.211130756843524
-32.50423042916516,-0.012586275900614464,-15.515316158554583
-48.85907053470693,-0.008109112769296347,37.33165717488329
-20.504715149598805,0.0070682314038176056,-15.17410005882465
0.20685498786121315,-0.007990727091971541,-7.161720357897586
-18.58199744828347,0.0075268509651068224,35.86154819253238
42.10560856598448,-0.008612075660447166,-35.13771530382026
-8.477042381925173,-0.015107176281456774,-10.952973637953356
-1.9922282042718606,-0.002734741566209488,-46.15531717570911
-48.90718942951651,0.019335829631155883,-10.639181389619132
45.75773643974928,0.005650038609762438,41.0721718023905
-49.86069262414603,0.014262758923119838,47.26660389938485
-23.476676658536466,-0.021802879150148214,20.58744616206583
20.950811636742344,0.021229065794102706,-39.23239761415619
26.152741745322203,-0.016214834055225353,-11.227771004584561
40.7486645999664,0.021723448332562532,49.57616752840116
33.729213500541434,-0.017718213100095744,11.450529025725672
-10.190376057560727,-0.023035063465318164,10.178389250203026
9.540101635687861,-0.018068517048261196,29.210241809283005
23.96629297524801,0.01896454883304701,12.331930270419868
10.827325750217668,0.004450881389550403,-47.526904226669544
-20.184421116599005,-0.005295115457154349,-10.744048985489727
31.653288084952706,-0.003335791769496506,36.3883520196739
15.93662733327028,-0.013217208044384532,-15.105794257870265
7.842520035560952,-0.009234967189124761,43.824531336253244
-19.204795113570093,-0.010315378647484398,9.406191350090019
-12.884272276625694,0.01345618994258515,31.66310872070575
39.83695022681631,0.024782576427450916,-22.27959403645575
13.535628080049364,0.007183288832772708,30.03039197720831
21.962332780126843,-0.02492982481132008,5.187374256892518
13.310436423127072,-0.01787201918257448,23.19690182255644
-7.346709038288623,-0.018798852959763853,15.063351566881806
10.934336479153309,0.021146221311859136,8.425152007107506
11.480570227769604,-0.02036386480074719,0.3073387093995592
-44.16627650600077,-0.00011435833503758985,17.32075189626555
11.364689060374808,0.02073388154325949,-9.62062233755816
-23.971956652237214,-0.017917851073489907,17.266205403843188
-40.539820273358195,-0.011172970317579196,-1.076116486116419
-8.407214780008154,0.008221886488044644,-31.609892048605882
-33.75943636948063,-0.02464896817177445,-1.474767883496554
27.487179363953047,-0.019054094401855032,8.599078374456148
-19.359923589943616,-0.00903670411532842,14.895753954374882
8.73125941767259,-0.00976010851840587,-24.391442185686262
-48.300276501149554,0.009508662415502647,43.53332098228594
11.613922333617907,-0.011737982563655214,18.27223243315754
-40.47226339523385,-0.020196024792501432,-16.424685087439748
8.622040071022852,-0.0015593771924718447,8.90195703663661
-14.349282361335469,-0.017906757655245242,-21.949619701297685
47.92366126941833,5.463081017206828e-05,16.75470829294214
10.10871765136234,0.02257727630936259,-48.51177016253011
-15.317211007831347,0.022106717183826043,4.234902433833923
-44.77785368468295,-0.011515452272670479,-32.78162624838943
-41.627646353764376,0.006653593593063285,-35.22639600633511
-14.374489002075798,0.001023163857796272,-7.1923779827737775
-47.20801669052833,-0.020529587818555045,-7.332262040593129
23.9454314066559,0.02208509651355183,10.841886674424707
-28.929463275912436,-0.020619127035086216,-25.59144650802154
5.89491190070175,-0.010626762785205536,8.018805165410079
45.519657584060596,-0.007891491521379902,37.51528226157754
-8.479095470568623,-0.01652781589208232,-8.604634293177739
-21.44162410095367,0.006037573207144275,15.613214251953664
11.100911468818367,0.004802732426184182,26.01611732443139
44.72593993453464,-0.0198846579461827,-28.625875059870133
14.928201346240442,-0.010435481199561742,-11.905751348023067
-9.689639056815338,0.012792068336377416,1.9417340132961485
-49.20803027249103,0.01490265245177249,-33.4223988527625
10.69324871672972,0.001746026601208657,30.396386252758575
-34.096875691762186,-0.019143136822165698,-21.979813761528398
-49.83432151184984,0.014195264101391457,-14.994673560508119
6.463457296599387,-0.00398946659595617,8.656733217038578
9.730392540598572,-0.0022063905087010734,-19.510469926884756
44.30264482587545,0.009067607257092172,-10.9852588442902
6.828068566870485,-0.0063606163353530434,47.91451804336232
0.903426731178314,-0.006172019266251671,17.871798638966354
21.598903304541963,-0.015157937839194347,27.477690327943876
1.923121507987645,0.020356120126279936,-44.82300876204065
13.363949415464646,-0.021876973118263466,39.2102411104933
36.88596023856768,0.006683302288278403,-35.90726086820495
7.1610038300177195,0.00882436293712592,-26.334220254972873
-11.836771441238739,-0.022795947664005847,11.120079007919074
41.07670760779054,0.015701438498969288,15.047891560596
-36.289727429160344,0.01910055731952872,20.391717917267073
48.724608995507396,-0.01996048396769473,17.043128938044433
25.422144267498,-0.020339959324602027,48.733919751541734
29.28252057456187,0.009532307157024036,-28.10018800469902
-15.730390254036486,-0.005322354912598935,-44.93769662080002
15.323785478966684,-0.015039348193823444,42.18693647937846
13.350325990498114,0.005387159457839602,-25.00782920560113
0.6911014192652942,-0.012301927802430251,-20.798853246296733
-0.41485154384658074,0.008702701963619552,13.850991078977906
-33.36137216694543,-0.023840586570176604,-32.618423184893416
-14.442690549854376,-0.0019625228499868877,-30.79693841675987
22.40927860349811,-0.01686614849264554,24.02940563298536
20.86870781477002,-0.008589050519515525,9.361007714648295
27.9692075304298,-0.020583666726164847,19.688936220046187
-26.26856083514486,0.012237060782944939,-30.90990664189427
38.10668392721965,0.024877584879109203,40.77688905126334
-46.08509957794792,0.019966687596690277,-48.601450618057264
11.97381286836594,0.01363851232066593,-7.047256606827169
15.613619875262174,-0.016733441750186595,0.8693548385407013
-7.810361540719988,-0.010754255273420082,-15.892444855238999
-18.821995435142536,0.0001545461913770932,6.001798934893621
-7.591449257210705,0.010110601967491077,44.44848695959598
45.358326854412255,0.01971452451147409,-43.43010882647186
18.975557522269526,0.01714909282807229,15.506965433554598
-5.550393760038986,0.023142581116336734,25.130705116689754
-35.11811375451781,-0.010965179945517545,-16.47695177291243
3.274057630235994,0.0070762940068924,7.04794804372866
27.11650349620352,-0.013471536424442205,17.06760094474801
1.7239277977139977,-0.01771387861354535,-47.908603531947946
-22.21029997111352,-0.01884476737214192,33.902861907461755
5.929854241420209,-0.004023166774769708,-32.50500460625376
43.1413197044927,0.01531932943629185,1.8569518653075008
-48.91581924593788,0.02324289390268957,20.45809013066041
-41.88365914784534,0.02027346048653228,39.8205276992133
-30.47224249562629,0.02111886749167851,35.69167733947742
16.4748555086137,0.00981759040316324,-40.07848909450371
23.14387502955468,0.0016467852155528095,-8.696343503935196
-12.495813708586034,-0.0131125847309918,8.935596629971975
9.050974115489716,-0.0005518200219948484,-36.92317740424248
2.2420955635851456,0.01993219445716008,16.539520860698232
-14.185886715683182,-0.0088034574619516,-40.35769159820306
-19.308534449776594,0.012241460732391601,18.5861951803369
-18.932178067025298,-0.019419636626710524,-34.3810773126076
-11.027271697909356,-0.001822353479139914,42.89078951962503
-41.00007176333879,0.0034347242245294056,5.667903059422045
6.232984371046257,0.014956550436114484,-17.821302712512136
18.740154198075018,0.004197341497622187,40.93791297147993
-6.625348820269039,0.0016284093308578176,-18.017530483981893
-39.70225702696513,0.024837611511859745,10.398875428947527
-28.761106308730213,0.009900593916121934,-18.19835282835649
4.466819696457968,-0.015130958311522126,36.10294049756834
-15.861959305696956,-0.005891216858157272,43.26523271647673
-10.477692026947295,0.023888069004963847,-45.64808446452351
21.84383166706391,-0.019592448167170123,39.276387008672174
33.846098272722685,0.02000139739414021,41.10352914814284
10.741697416105254,-0.004796696775894439,-27.568096423989306
22.462301936785394,-0.012529276123799438,45.695276786015285
5.519313648162594,0.00042445106523977816,-39.490376567767896
28.108864295315342,-0.017025073292078967,27.855768313675966
46.46206333269774,-0.003349362389708503,-12.280334851161491
13.562334382112475,-0.009681961598429873,-8.248976414363405
49.70574640317025,0.00651553408839,-22.450634504407162
-46.686198556923706,-0.006523426248764674,-12.470591183502222
31.372929398735977,-0.010445029479106789,-35.58446515212573
-17.466531069314584,0.011749952405369031,17.077088119963292
5.627219943962224,-0.01570365055633709,21.03523252123506
-33.71438466215412,-0.004838362401954489,-7.818284929052709
46.43850754838813,-0.009059415634588435,-45.324515931928985
-36.74319527580665,-0.02212181058930572,28.04848610961851
41.49226505130976,-0.01624790621290042,20.682742164101626
40.73311671742687,0.0033604869438616305,-48.35093055827734
41.17495594111918,0.023354248676686527,27.855405039076103
42.2988135524766,0.023448119236193353,39.20512253522131
14.666080448265745,-0.005895376723369074,30.27643577008017
-24.95514290525278,-0.016379145927092525,-44.29009017203302
-15.868825601256788,-0.016145551054120702,-44.63971417805372
-3.903205811223984,-0.0013942381062168885,-25.774773608958313
21.791059137792345,-0.009077447468296057,-21.675641600933215
-46.69218962611977,-0.014575116713043734,0.02937805971241403
-7.563067198856324,-0.012441780555501198,-10.522656475620074
28.233473593812235,-0.006885851692770634,15.692644290114544
-13.429658073396709,0.007826293075142834,5.967074455973155
-3.3430775092288627,-0.01802356741633329,8.854037295501016
-22.028768956223033,-0.01417516805845457,2.061046248769536
-25.24725405523399,-0.00946770028954811,35.65844401854581
-38.816093522663195,0.0033660311713358884,-22.797806764985896
-29.99425278039104,0.021378758633094984,-2.6208110254593606
-8.65194156720537,-0.0034430706654661088,6.823422430822667
-8.047855104836586,0.01700380220080821,49.50125776153696
-43.406589663989756,0.012742887817714113,-20.60030040737909
-12.188803142062412,-0.004370654720190069,-21.611145212642857
-26.23492805475053,0.00284647382711075,-29.805656212402308
-42.38579651497718,0.007797410570809113,-21.77769174432511
3.582158334336903,0.00012199369595342069,11.661847820922908
43.76330391181804,0.011472910341864068,35.02527105852998
-37.68824882036493,0.0002032162432363746,-28.149265517917833
37.66182928980257,0.011278005882438442,-45.87120151190083
16.573871242786325,0.0016180852145083018,1.628152584353714
48.75522884249628,0.01495938391743687,-23.31875817812017
-17.594779536385055,-0.003948625848319131,28.242552007329337
-40.09719565883297,-0.008421282634938038,-26.130570306439292
-22.304016299062724,-0.005642193010442359,30.597297113210516
-11.057566840734815,-0.005370697809661373,2.2960866778106066
20.664866373111224,0.018987926641817907,-10.602425838278698
-19.944474582322734,0.002032709839289694,-44.39243233325435
-45.126468768028104,0.00923353405903437,43.282055433785075
-14.500471082998132,-0.023336646004406342,46.5458171555499
49.865908977625594,0.010625900340366937,6.716443254205338
6.404547371040223,-0.00022177775020868623,-10.583430902981995
35.56545856418441,-0.008067184715583191,31.544445922334077
-5.916567164387828,-0.02277092689881487,-42.07440719825883
37.77053723917541,0.0010456240231518747,-37.99128572035795
47.050746998553194,-0.017812194669659748,42.20928837491236
-29.225002813818822,0.005608033810978862,-31.46330260215625
8.293936178907217,0.009506873940968857,22.210891157999455
47.22882355821534,0.01771131800203951,-3.8229667438322537
36.923820842574614,-0.005781905671559395,-48.5325717934594
-5.421283458910786,0.01884561714411674,16.215914708875715
-12.365499837104046,0.017474345704628295,-19.32491337134704
17.17571476723751,0.009982956551673722,1.3096679298532408
-7.121720894780637,-0.008376574456272209,18.215833441567725
-30.28113748233977,-0.02076153809895311,-18.93472454693388
-49.68575937077819,-0.004189257160970083,34.79647799724475
-34.91306985321101,-0.008863350531080394,-14.6165275902407
-23.814104081335884,-0.0016491825264169195,-38.9940640590865
-30.226925108747682,0.013449992688127264,-8.252957512717998
10.560327033815518,0.01695374404151758,22.85290777647782
24.971679345371783,0.02366056847630417,34.954364586870625
-24.777904467893453,-0.01602671850571591,-33.836669572667645
9.737554624998033,0.021828733865803585,-39.61184564923255
39.71206449900029,0.02338282159760998,33.58037733747908
3.8220652594394764,0.015604264769469342,10.381958389055143
43.870725236741706,0.00395991397943754,-14.989982294332073
13.062739784501133,-0.0171157900734245,4.138831788475784
20.06929956088672,-0.0029794634250992595,35.15756924515385
46.07548234674378,-0.022055367416050287,27.270580627031364
47.74113596696273,0.021810075741323445,21.213627125656032
-36.33636697853133,-0.008952023433722627,12.039761805151052
-18.766741983481737,-0.007523288398399698,13.609263833217113
43.76348278255287,-0.007351676672160218,-38.86179147533842
37.44594330009383,0.021899872955987755,10.233259010979744
-27.430091925929222,-0.009735033558962582,-17.6525123009434
-41.539560856611445,0.007531898466235601,28.653612115429794
41.26637453875148,-0.001634531778139891,20.54789882678783
37.96112521531164,0.01500449330234109,-12.864197701727932
12.25935710690689,-0.022560252857415714,22.430420654308122
44.9468730197939,0.015379421326767638,7.285722275298966
5.313294020724371,0.018636996743018566,37.3775128735257
-47.2595462888364,0.020184657736204044,41.23774010749405
-18.160787933516108,0.00024334674633349,-16.964662955176266
40.52276128605132,-0.01761466221820522,47.13136562370434
-43.250735416658145,0.004446598392624457,-49.85375304058407
-44.37566354054505,0.008837353719125307,22.873516231254882
0.08302248061789186,0.0019096167141062319,-44.42825611105277
-10.582008933682893,0.023671696456671186,25.545912020445712
29.26855150252446,0.015883104929645807,42.46698587315703
49.18069250176467,-0.017728191669504248,33.80230819039788
30.037196412584905,0.01466012644885955,38.26213314780557
-46.128279220383405,0.0010786003712821186,6.140438512811784
-15.357173260170839,0.014563489301655741,-18.673197540768204
12.857314239069453,0.004167922774916889,44.13880979246555
20.884678973395495,0.008622966516210792,-18.488375120015178
26.8480987639649,0.014497206461273858,20.044898298450747
-47.10921379246151,0.0025466198285871815,47.83344050232293
35.35690716118407,-0.019545859659970216,-37.89362739711237
36.52545885843334,-0.021797534787804697,-30.58425991691649
24.05516202103304,0.01354083045382267,40.53739514249773
12.311564923725996,0.008344433824195724,-12.87499015386959
35.1435459348308,0.00397563653496218,-25.10457825161929
19.05221097504166,-0.02270241741648247,16.80427512984241
-30.21193495474297,-0.004367832728583699,-11.643059642294077
4.400439087709273,-0.01139832622437022,19.04126267479994
-26.883905378817484,0.008989897746182862,11.588117832436872
-8.476324524681822,-0.02218836133361339,0.15269168346394224
-10.780252273901183,0.018667042552509318,35.120672195974336
-17.524676409176365,0.019036434120589057,46.382057942748105
-30.281147110334892,-0.004709083763428035,41.21888269416175
41.04488149284387,-0.015257306373647583,-43.64848039833691
47.46959028393255,-0.01512283472811185,1.2428665836008577
-26.80625083250788,-0.007558373898532367,10.283279432204552
-36.078616862925415,0.009652693171621908,9.85983721152789
11.437376927759665,-0.012929308898649301,-16.796511844312015
-45.49449261258316,0.020736580102844043,-16.70664672804366
7.0478050284163345,-0.014565596069441073,-41.27832071345555
46.29374930546507,0.0032835265163778937,10.769655408271518
-41.501394732821666,0.014465162381746083,-42.34501985266932
-18.81236107838824,0.007581905196908684,23.948646891181752
39.36478212698074,-0.00011713474505406496,-6.112746870690458
-17.65275025202746,-0.015169397882808418,-38.26539034894615
26.77852179418545,0.01761277303426434,-47.65227453425879
-37.666609791408604,-0.02258211824296788,-48.36176260730621
-3.298606894480173,-0.02368402220586977,37.24500215342077
45.921114993199836,-0.001903295373139463,-17.241866453298137
22.741393417923817,-0.014757523329179968,9.128103983359402
4.77360035384887,0.01602209231218437,-21.67050888014287
33.16843613530493,0.007304830863982668,-46.95434751570096
4.67961406861167,0.008541641370325585,6.129920960477428
-28.89913252179006,-0.021577576589499426,-2.965608933612593
6.835025829081886,-0.020231125519162115,-12.186566368654859
-49.62071389563884,-0.012243923416302966,22.14812841853451
-36.9979086816842,0.005508586834401846,-21.46559244278596
-17.85220675186445,0.014262447336789767,15.044482284942461
-10.554409716605065,0.024220907076555602,45.913592405239584
45.77068052899908,-0.00827499077784134,-16.136804245483425
-28.896023438626305,0.017456949925534974,18.307265076662773
33.38904583165397,0.014658434227451264,-3.8372757221476803
-16.990968274905413,-0.0038306899193977888,-48.055804482370945
-22.66539962032311,0.00608750902554641,45.82303056423858
-38.087586220301205,-0.006940181430957659,40.987793494792044
-21.49915066982555,-0.015974883427586337,39.077468299623135
-31.160856617333256,0.01993376919216746,4.033182665169065
-46.73151363675429,-0.016026912531282175,-27.64981489308961
-43.77807363597046,0.01326850543633229,45.88540991894868
0.8257190871250231,-0.022303623618138174,-33.77584229389979
46.54417606888994,-0.011817256725680665,-33.328339734973625
-34.35388393979184,0.00834289577499827,-29.06500403367367
-20.903661939168295,-0.015754762998649856,-9.363997965623064
30.327853410762643,0.02488042575919302,-8.9629601464692
0.5963257911801634,0.020704858176975087,22.47010039845128
11.748703855939958,0.0028759131833014095,-23.18823621922499
-11.351706579508324,0.023466784672188656,-3.560847567792024
-16.181480910575807,-0.01706207430816606,-12.524049385619243
34.16380924818904,-0.007659153816395533,27.668129056111496
-25.967838052703073,0.010154640866836956,28.0885451791534
-27.505039616095807,-0.014429102406478218,-26.67367253019576
-45.166836387939945,0.0017266882518139556,19.578636959720654
20.53463000768639,-0.0047706635955847565,22.324079780897975
-20.22928189686921,0.009338002029322029,30.776532245309923
47.57052116668436,-0.014244577687347533,22.050392024586316
1.3390880353206995,-0.00497890042932329,-40.93080317138295
26.43222085079192,-0.016392456973959926,-14.731433091183554
15.436016863478102,0.0044147579200353,36.57231957670636
3.5214382065116965,0.001459340228475027,-37.79454692360113
42.5592575951117,-0.019659670975334442,-13.478785197084399
-41.86569681704587,-0.014924435884433063,-29.47878439172684
-9.262882376176194,-0.021611588444235854,46.730893900863606
-44.736668731971754,0.023420677075527155,6.096661073422936
34.74875327377936,0.001743919157472927,31.51664805837511
-49.73160426184132,0.002490204018986669,49.52485269280223
-17.996132330843693,-0.021827795738017165,-41.80519994508942
-40.946342777725945,0.010831463059695304,-47.41546786672251
-42.29938572820294,-0.005905675199262099,-22.352673377992936
24.074219178099938,0.023407953687562322,36.40871898917999
-3.0844371216635835,-0.01385133870469823,-4.484246459128592
9.766356467162794,0.003423603386228359,3.1714315375076296
-47.02777282017203,0.010803147420302597,42.32763754134467
26.790276776063678,0.00269573531721487,9.957718091921386
-49.407347735187024,0.0016839005348804233,45.3776908872038
-15.429320909398847,0.01868533774427096,46.99877590931135
-12.81342206549764,-0.02400206289846444,7.385192402350867
-12.877875320531231,0.007970567943553095,45.71491049374903
-7.601716567360498,0.022959323267630977,31.101360171868095
31.651734085425446,0.0063169907860955304,22.358000661545148
-10.891736619137873,-0.016349439835006092,-48.64954001431602
22.96412532193493,-0.017919354512505148,41.386341309825184
-41.177769332556444,0.02087259215607546,20.942233545187804
-42.91656355572127,-0.016394351522391507,-44.36337245808777
-24.052227846005238,0.012215116719632546,-27.997099780699752
-28.96768681086478,0.01922063415720296,46.31746904357688
38.35639685860079,-0.022192868639439353,28.353901011068416
-21.590212817553144,-0.005414019148608201,43.94574474829717
-12.996461869718331,0.013647313035082313,-10.542471342303664
-48.189662132274556,0.001169833478955773,29.806691984629182
26.161651877183132,-0.0209725259697892,-2.644110949888315
-43.77203208266363,0.024917171162654905,28.773207975649157
-14.364058106542501,0.006824080957473493,-33.650619376462416
48.73595657038739,0.015330044356487597,24.456953336018714
-13.457970223963812,-0.01703580263760885,-16.153630473244952
-34.05491270259642,-0.0037132307187826355,-0.09561966712037417
40.83118248370978,0.009302586071417644,29.46385148693328
8.901672210378209,1.6901695088094443e-05,22.775868103701328
-6.938732146640724,0.022149830153753262,-0.2829348494105659
49.283239096065415,-0.007417233457181451,-10.868819779574537
36.69460079834488,-0.015432007245550244,-3.2383112854655423
13.631609587342076,0.01864223581893503,-24.399483047580773
-48.55840093543795,-0.013733661790072356,-41.480182010620155
7.581973427258184,-0.005348936573139951,-43.19469562645634
-2.1810950589635993,0.001739970666042985,-11.17060982842456
16.038874851675217,0.01808994415357503,-11.159352623497156
46.88992862743258,-0.017755841906160426,-45.658920103809486
19.345506557506724,0.017063457778690554,-6.945644806117727
-37.8708710123856,-0.010406075163247253,-29.301430842774778
40.33749931031146,0.0010501880838964806,-16.45610413561593
6.788534784577273,-0.012432112698865534,46.89086565183126
-1.9928337866958685,-0.006062215896267941,-22.75351139857158
30.70885471998301,0.01230492634628879,28.078397223816737
39.78952166754178,-0.0192899916223422,13.840500143944944
4.411242695016917,0.003177758263449671,-16.20530075260156
19.97405216043184,0.014861042902917808,1.3498602152879897
38.91777790658823,0.004005509672836045,28.22799874405571
-39.4726183575132,-0.009368197051988002,14.025664603491705
17.51210592129945,0.011170822850771374,9.495303482785047
-3.7255581258926256,-0.020990582675715987,-15.714096747914887
27.6824479506067,0.007630830549398601,44.06685962239648
-34.39365342038453,-0.010639351551075472,7.791993541411756
-21.966454995289673,-0.0043710924815052,44.904249960388825
36.350491026614336,0.0031886004908046155,8.119699869877806
13.55973221782564,0.005680806395034977,-34.63996299346287
-13.2450941840047,0.015035778041550735,25.450687063424397
47.70830707897066,-0.01143680169509031,-21.218930359429933
48.539225595409036,-0.01726651363098196,47.57966151606129
-25.55557098918172,0.01253143615515414,-20.179273387627106
-1.085139666421199,0.007210045379741674,-20.771523409529802
-9.568078765353981,0.0076625624143641935,41.44733793005041
5.2505810932878845,-0.018055621223323926,16.42093625906412
-19.13402610153454,0.02146562451721845,46.86268334352273
-13.310158556986721,0.009252945330612827,34.73587842445346
44.0772615921135,-0.0167214181331286,35.729177469718394
22.500760892243477,0.011277763767224114,-30.65472441300573
23.5314578511949,0.011764916823259336,33.510368485036665
-3.436835092302914,0.011920939568602379,6.524738354941341
0.3579193241560503,-0.0009590450406764053,-21.05176310790403
17.768868988209803,0.005912056692620776,-27.082372983810664
25.400291414387993,0.015759109417396215,2.43912303292376
-20.062648101800374,-0.015860013086997905,46.29684757574705
-18.701210697586077,-0.011428311174332012,5.050708727253308
-49.41386562183476,0.018177194251740733,35.458676132974475
48.44015516498179,-0.009894327117249108,-7.255673040628352
48.46837906157893,0.012181937268110801,-49.94604984197094
-6.576067859556453,-0.013714158722571057,-36.54043200622773
-18.72150917428256,-0.020775432796843768,-18.264685900449496
39.98940936076805,0.023825416719932574,34.87669806856982
47.848222351958185,-0.015077292192550652,0.7919651760426163
34.44542578187831,0.009221585929843588,13.17012312251672
-12.002199370119328,0.013800923938569874,-42.75943538015535
-32.87035658778903,0.01940952765116572,4.134595865412685
12.281518322163542,0.018091230610226543,27.44576958757949
7.684633301520591,-0.021781983007464107,-10.930647126668077
44.36402851403248,0.01034083730385324,20.4485793239283
-37.906638837075,-0.010574495744370638,11.31046641145906
31.92736739883523,0.0018179148126288916,-7.060413508133934
-23.281907112201417,0.011221301251962856,-10.930198294465058
-12.819375565144163,0.02147250780025639,-8.56247277811849
-0.24222044308023527,-0.019746890596575153,-28.347305032063463
-1.0812447538949144,0.006040207020021636,-29.76747371810332
-23.266336794559283,-0.019874675984274975,-45.07406699563593
-2.2343011402798254,0.005005876888181538,-23.843719347001834
7.704389561445915,0.015334887983438829,-30.518404871292493
4.883840928818763,-0.0162740878694453,24.776739545492404
45.66065893764892,0.013451277976302238,4.054342567207726
-8.046273318194842,0.017592084365272508,39.910711700204686
-1.7044068956168843,-0.0017524714524227922,-34.10824294925337
2.0714943039419254,0.004585994683500266,39.34805994953582
-46.84718934056129,-0.01258090740187573,-35.54099138187732
12.73604570005812,-0.004473518944999245,-25.167161192749575
-4.536959924544547,-0.00567846176117643,3.240897751651417
-42.95304304067701,-0.024749539290311692,-6.625791874706735
-3.8092898911657755,-6.18828035193475e-05,-4.250775767079396
32.20342408002209,0.003091060582047174,47.49225649426455
-18.051489951440846,0.018592374093613466,-28.376679964997177
21.145481078467455,0.010773187477568419,-21.64967546055898
23.63954119752148,0.021875522227270537,30.78646594773356
-5.033014383083348,-0.01858581524577543,35.48826986417882
-18.560995152473435,-0.021594649585687933,3.6562474074517937
36.612031439322664,0.012646738803341127,-9.890099118465464
-13.469990283754683,0.012971650585169615,-12.112369133830633
45.35811291780374,0.0075084180914588225,37.760294311054565
2.6147692839545655,-0.0196272573690305,27.969378326677685
30.2283509904929,-0.018068164691730355,-2.468331445318924
8.071619134183436,-0.020441273657478932,29.56551421373304
-26.44741900403683,0.005102767263994407,1.846801559961385
34.52553305367225,-0.0026290587931620535,5.6731762509426105
-30.236810854701858,0.00017854439289842136,38.575324905285825
15.717060534923803,-0.020661428348433826,-3.9084571269014887
11.022029295744893,0.0221228864514754,26.471797511044855
-8.719082153605427,0.007194887712262468,-29.42396529711183
12.999579410945906,0.020221104252191237,24.262899351859843
-27.373186774553748,-0.010805730543495751,20.745476944053934
-10.563649788171837,0.007785925234135058,6.412416123913253
10.061237167350058,-0.012257656228987335,-24.98657481108496
-5.518969819924415,-0.01875705355977239,-36.67084135645992
-9.610041949106005,0.00021277305055802248,40.909843862632854
23.517168261696426,-0.01053670429844078,11.708682321193123
47.739473447472264,-0.01258296898110199,7.878110799131974
4.088011689371285,-0.005192950965893305,28.51058876764776
-39.06932018585248,0.01224690604268594,44.612878558606226
28.16195665938932,0.008023524027223297,27.879128736723032
34.66503066714478,0.006618725875888347,-1.6023610253881628
27.682768947008668,-0.020051434393506887,-4.0731909929458965
44.073276071090845,-0.021742121772071372,5.462258092700509
42.82965252359391,-0.0017230728115632706,-1.850048850706024
30.073625807558102,0.01657313979393167,-10.974493685283981
37.63150927467976,-0.01844968783453634,16.86317115504366
30.055361566593646,0.012046522346908915,33.414955677783794
-39.15904715046574,0.015367725383482404,13.98568098374431
19.483289694691408,-0.023320358439322328,-7.861422422181597
-48.64942073371198,0.01342087767220363,7.476531847775711
-48.18277180719335,-0.004870924583621115,-18.40654683178181
31.18607252506939,0.018699285424214028,-28.074955462126482
-48.90482603321895,-0.012218136692214927,-2.141797422317481
41.35833864092899,0.018151932132365795,-30.120363429546238
33.305790240757176,-0.005103912818923011,-0.5903880668897941
-3.549824925820289,0.022914631197278455,18.450523503302207
-35.75608379544973,-0.0021625438254700355,30.071922212758125
-13.69313203443101,0.022233857698836748,15.215891003662136
-8.17544217182261,0.012146835540090009,14.436685855105694
16.61501406478061,0.022058553617614343,-45.41115942140057
47.780363308140096,0.01373764836229719,-8.559992277792503
13.423760674968875,0.017593142004722735,-18.817171431502487
-10.791021992588924,-0.011636691699440378,13.777181096296651
-45.48960513179233,-0.0043555540724275095,-37.60046045997018
22.897537214101575,-0.020022797837478713,-28.69986934952764
-2.956080113035796,-0.020131738098940772,-15.383828521873902
-8.098018769130022,0.0020253655695653613,14.992646614433184
14.137860833542575,-0.0034717720368790325,-47.59307913374483
9.755384399103953,0.0009585156042907772,-10.626714196345944
-31.780395016315953,0.004635398350859042,-11.846021865041543
2.8867572395160224,0.022300420568190156,24.846914035108256
42.35820290558607,0.003969062193973871,0.8667324125066855
47.33301481527336,-0.005172493467820144,-0.6849414642744165
-26.4928857255487,0.00878748180516329,36.23988617502317
-43.621378913719646,0.008890233415934139,-13.237080569988024
-33.67930858408289,-0.0014202087638135186,16.830950509139768
1.4784349084022566,0.022523441514604406,15.950407987391628
-38.09044653740709,0.0013190917603637838,-43.252267837593024
-45.07750657612733,-0.00016969079734220974,-10.984383689202772
-26.33230903398053,-0.02424984003158741,27.403398904932644
0.5566881306816924,-0.006266906378148435,-25.860472392421098
-5.107835425681984,0.022484525315643406,-9.821572127089496
34.41827376060074,-0.00411271226867806,31.86391405300955
-15.5969152422241,-0.013780230276564871,-8.123937399529979
-22.653521615590012,-0.011571793964368205,-18.990239541731214
32.721165586020135,0.013022752420028004,-39.85761529448363
-49.31521485830519,-0.02323548523284957,2.8142250730646765
-10.696669824441805,-0.007383812628428948,1.2894250478842721
36.84249336631903,-0.021099513925532866,-48.30307184310041
7.6406223266653015,0.021566519559902027,-45.75459163723572
-39.66597905793532,0.0038053577436976786,-38.78898436428896
38.168023684054575,-0.022395436096169487,-39.000685279063106
-7.144488955445951,0.01247300875053492,41.534040076970825
-17.3929958796601,-0.014468700958530985,-14.803525236997174
-37.69260927162226,0.005485315545779745,38.23231812430548
11.909594448841645,0.018744625987881375,-4.452767094654909
-18.81709975147581,0.0033148157990952054,-35.92567070102404
7.603375834158655,-0.015691423721026866,-29.26198080050344
22.922207404402386,0.016790514228237748,-28.34232129585601
12.159515058951207,0.018858581071191302,19.729090716783404
-22.496644001676923,-0.022834514954329713,-46.69306037049924
35.0316178788011,-0.00507047601679551,2.461420827844897
-15.774909085250222,-0.02030879272405295,0.0006262262961982401
17.950329427785803,0.0006182987677596681,0.06586146348325173
4.583761981052028,0.00881348393288757,-37.212685810992866
27.244922236990476,-0.01203969536708211,33.07039392990575
14.315735745351716,0.0050737442496392345,34.01799076059257
18.240483781021126,-0.0019378123330708943,6.15476317703029
27.087008988399248,0.009456506083917939,-11.075621571018146
-34.414536382750306,0.014613652614975978,-3.857763752546127
-9.229914389788682,-0.009190786582311879,-44.99784763784663
-42.111322127708526,0.0019403412633861236,7.303621758002002
-42.36077808953812,-0.00933882444693648,42.521159955210805
-45.96963622144035,0.014312155467970412,-6.699521048239589
42.39173335176534,0.004139256518390016,33.070542886365516
38.045124587476195,-0.017399685814435784,-19.57954324309267
28.311608912476615,0.0013477782911899758,48.363797717582585
-13.917424902716903,0.018422373549473778,21.26773157981613
-24.607163671509124,-0.005434755583974198,-19.293879244180467
-32.575950458882104,0.02055377175937631,-41.460706533098616
-33.353350987099645,-0.01775387241690738,33.30503707508491
-14.498986708722668,0.017994346648047464,9.351801214579993
37.107092932019086,0.019392613089441804,10.69699335009409
23.34908677935401,-0.0035850079487493927,33.44814256089532
-15.436748849611618,0.0037826723043221273,-12.750857562515684
30.92378628096401,-0.002609428544253417,45.648036495003666
20.318702302322123,-0.022464532932594223,13.094614477325308
-29.712083413500302,-0.0012270984606034471,-34.929102118208235
-4.643175466080308,0.018976951918563856,22.595770380966343
-30.68586018014883,-0.02166237357494767,-2.5634980871769386
44.50176523479948,-0.011725398683268407,32.32517444108012
7.55974494010124,-0.013161983007230522,31.39287815042408
-8.767703261056667,-0.016746260582965626,-18.699035630606385
-31.276272740316948,0.0169998843471588,-13.087503183914983
-39.09066644907725,0.01764846039842735,-46.117145093042154
-34.10367431614117,-0.012518539998830526,-40.8391867387396
-33.36047637375371,0.010473083106507894,43.782867015859765
-2.079293975773581,-0.005783245083404949,34.6239211471096
39.953338032432285,-0.021063705093689402,-33.63257403732642
34.088766151196666,-0.015993086590732276,2.304020442779766
-3.5439597484995886,0.010078515772007052,-0.8541409925590244
39.063116586615735,0.01571041827591229,12.083677916420058
-32.01934453472427,-0.015256818758576497,-16.048269207228415
10.160139515921827,-0.016586693831987125,-28.596990429159074
-18.896173160226205,-0.006194349902851375,40.51946076824257
-22.704191073786028,-0.004421053779100969,-9.647416539281352
-11.848148520288959,0.01779941409603611,-16.31823674763048
1.878549989459934,-0.02038096958232638,4.392118673720766
-47.06273393253939,0.014949960539499263,-1.167207929730452
-12.106560489272724,0.022933748890685696,-15.902576634151742
21.083443885394374,-0.006299847268043734,15.007292616885024
48.255174178463164,-0.0183078983105755,-31.860779730937715
-15.231213753334657,-0.008476634792471838,-49.951618077356116
-29.35256525603843,-0.009026953568963863,-13.688671165042045
-1.8513255812100482,-0.0005028402508456056,-18.124845412323833
30.20211914001443,-0.019038781754129076,-26.432356345255513
-22.947140723130588,0.0005112540900889632,3.3427625544590143
26.0224978445665,-0.01174180855390073,11.227237424162972
21.466179499542278,0.024162429175620476,35.612011322590945
-6.402830477074964,-0.021901011167655117,11.5092491773758
-35.91876314022701,0.022899703871832842,10.446025180877683
-18.99523758767243,-0.006831322899568094,1.182422556409847
-13.780083561856038,-0.0014881868875401202,0.37336585214241325
-31.394522617342112,-0.01068066285903121,-7.480834041576877
2.4613178327542826,-0.0040288812764490214,18.704940585897774
20.30571027297067,-0.013435272612881617,-0.7843007336006309
8.300859821515807,0.012011836159770167,42.32721059124303
8.556964557322246,-0.0041251685182204685,32.79007256504829
40.78395876919396,0.01236735130761623,-2.607870879524512
-43.96883279316738,0.024676009268458553,-31.156373909777745
17.42235490934931,0.009388973793249884,47.88491764994822
45.75420223291026,-0.020583431709481105,-32.10243358520832
-12.900633135049745,0.019227308798576974,47.54567750444046
20.14940408539971,0.024986210255168936,-21.82428878017113
6.503630284739124,0.0032472086776265327,21.71937754131639
29.70041091891956,0.019221243458929192,-38.13222767638547
-9.69727053450734,0.024318181105220292,39.2815408935039
-1.8521575499800846,0.014878708793768868,-9.789962332913284
-47.32963486500515,0.01947791721660974,11.567768354835607
-40.293240485269266,-0.02397672219132045,20.782733437633937
10.768058097158296,-0.02121927657099634,-21.05386739152214
-6.6373149959742435,-0.004315275086133108,24.83944598476822
28.16275001682746,-0.006411568853291916,-49.9939507272922
-43.10250876923526,0.02248185989880396,-34.612815340634555
-41.11228691828438,-0.009422926317686948,32.795217632733554
-5.016666803471907,0.015057986390624382,-30.586724782715958
-38.39661212453915,-0.014162842435918083,14.108210621302504
30.051691399014217,-0.02008856110353694,-2.9675036971436484
-18.727176048550874,0.014604635389542715,-28.70517132684268
3.3295442023378,-0.010599270499034641,-3.0535306301387592
-40.43175305462322,-0.010824223979166698,-3.7251659422043133
11.54760072379353,0.014616639626188137,-40.519912743860274
31.63364756648531,0.021984666976080598,-5.33867380597998
46.195530656074695,0.0142805183586154,-36.445504133774946
19.28872201139808,-0.008958181154549029,32.5749336069961
-47.55803600618089,-0.009242740700204668,15.533488611259614
35.53265663613399,-0.0013590360727475936,-5.94627176283862
27.7221578678093,0.017805522026421487,-32.41189516015031
-2.09776996091351,-0.014566769210075776,32.331608683517075
29.27637612425309,0.012411337321786564,-32.15921169215548
-27.684666370146772,0.007303430202314429,8.212990989835177
-29.095105705889047,0.011442248368601957,3.1338735866696013
10.681161238927785,-0.01827720114418247,3.4946721715487428
-22.403422437648178,-0.014846569079125306,-18.627594594646823
7.311658594955375,0.02071775850784792,-12.676374039628712
39.54925780025269,0.023175004716134658,-38.75333014042791
-4.896940422428564,0.011307411483058083,42.64655387922788
-47.55992036373659,-0.02462730164009623,3.8256752720529192
-20.421124948683968,0.007916691576702807,9.467061012515785
-27.39199340149646,0.007201112569740056,45.66871631928842
30.091173595483852,0.00095114886357308,2.4352742495552775
22.789320890948957,-0.006054332436597087,5.5505305640839
13.257615696119494,0.019593957092424917,-22.722819760135092
6.505879043361688,-0.01683508094513413,22.667391688178213
-37.99415415517262,0.01872946503681157,-42.00246282451169
3.1979375640992416,-0.0070167858677810495,-38.356655786572986
-29.87839190168056,0.0026691436962097415,29.857074691376127
1.132417915621339,-0.007861898686406934,43.267222497961185
-45.67204156883298,0.020553896660055963,-35.84521542430197
-24.506343234376725,-0.008505510028907464,-36.1458175385684
16.649188400479204,-0.020993899362214415,36.955784408146826
-15.55087083130148,-0.016182804141943653,25.15068043172849
46.30806499582481,-0.016947719450600134,44.19008729721115
25.731527124250803,-0.004673711948357855,25.545364158707002
-20.485930561427633,0.014175471697249413,38.788260460084345
-33.378834262945205,0.009871349425205705,10.147494799056346
-11.43742536025291,0.007774518762437628,-30.071062743286515
31.918697878734633,-0.0126522124271439,-5.032032472455384
-24.3571419370764,0.01968911997420849,1.2618347595622623
24.792640902252572,0.013815678732607521,-48.2352277523671
43.65778013939881,-0.009603198020756227,-5.209669630235666
15.625175393192649,0.010481812100864518,-46.87022765492122
21.823406730009793,0.012376713537263107,-0.9145482145749142
33.42959733863273,0.024541543219150426,15.816957592433326
34.34867253045957,3.6557476175723413e-05,27.444404253800542
-12.422348356574197,-0.00844831519379402,-38.30451016348775
33.97592738430545,0.0010334690356095244,-32.97293682250803
-13.806159613547173,-0.003552167813716832,49.33851894383611
-23.633445474942626,0.01997501702404908,16.18971836334994
-5.450276507714193,-0.023329518556663455,39.81773218175566
28.16240367193069,0.02400969955078803,30.083467804387013
-45.69758239299663,0.006873513503100483,-6.581254832483374
20.702385840716303,-0.0064911587558113895,26.802741692831916
-21.906859989368442,-0.0032193618263189686,13.417274757555397
0.6755858857349608,0.004113281914209472,-24.633105434116022
25.758823100164904,0.005312155652801263,2.0018040464495215
-46.413289323869634,-0.009716516277452902,-38.716909002495335
-8.538585511008925,0.006614372607076688,40.37205573993501
-47.32645552141984,-0.024503714193853405,-45.80462088920826
-38.69178436618297,-0.021806098757977167,34.155586775353825
-11.868019332760113,-0.0168879624953725,11.823189806581993
45.053907662218165,0.002257329175652245,44.65339011597909
1.264167492320368,-0.013985469281764425,-10.787128233473183
43.93774195981767,0.00537390828577141,-28.600154677162003
-40.148654598911314,0.007396412904506447,-6.646430409236359
3.429813327565533,-0.013941769983978154,-7.039733643001767
46.00782420220169,0.01680135818670405,-10.840832840724971
-21.38054942864779,-0.005558936514246455,-40.538037161350275
35.40614314108332,0.018072871666717234,-39.047153172927985
-24.613593669651234,0.02274958338641824,7.024487779199696
-25.397166144501206,0.007840446052146927,-23.79728243130397
14.48968159313597,-0.017750883576698885,45.014032641166295
39.37130876674556,-0.015868870407301137,-36.56653257338181
-15.364010133773995,0.010824362378719574,45.933403015045954
-16.36135965683974,-0.022676407463138478,36.82486874556024
-33.35787152478052,0.011296056163242738,4.239967685035609
-5.594162030994887,0.007110683122085973,40.214809286651246
-5.624598023929437,0.012651350524601895,15.596656142743257
-24.051480788376434,-0.0024074646081930114,26.53225230897877
23.869984595079174,-0.007457283462545896,35.82498452023992
-39.59633338261309,-0.001276943495459388,6.84801355659669
5.350379610488176,-0.003601666065443078,38.1956073354131
36.764763278174556,-0.009769565657983615,-12.93823643126266
-17.01799056076844,-0.024856414027632286,-0.7370507952244267
39.6921264616866,-0.016557269540895966,8.611216085169673
3.2144721643506244,-0.003654659303770312,-19.295410112942392
5.160420896537055,-0.007080717556859888,-24.473552455400803
27.360898596817876,0.01643942603035943,32.80549666666852
-4.277600586303386,0.015186967198917621,1.565145171099914
-30.1778461654317,-0.009820754607124678,-40.21392753919163
12.313212446309372,-0.005944104766320051,45.28088331269838
48.10617955375044,0.02343754458160502,-15.317240471337712
-33.022853906891186,0.0077240496998505145,-5.584863535912952
-3.8770465658080298,0.02456488390670307,-9.48039728374274
-9.127955955684918,0.0026215977488985923,-28.63389814424584
28.136587792917226,0.020896758651461116,-23.321330145025254
44.844453111798856,0.020619782533911196,-28.81319304891682
31.735731947475344,0.0019591631606919527,41.75395989200523
-37.26442567449519,0.005677223155675544,-16.863041648268137
3.3240122648346997,-0.0045319640272851285,13.709738044249228
-0.08682003960440454,0.020063073648105147,12.719174759113848
21.025216804175685,0.01004693350863066,-36.86763348959031
5.107551503829519,0.02047043845342749,-0.4150471092870447
10.457493640906847,-0.0158550331973482,-41.88244051606912
17.3196930054592,0.015291131590172535,39.48449522246378
-12.922829594344606,0.014814916899277907,15.162689572714655
-46.53301890152912,-0.0012009591651098786,3.763277969529142
28.237689593744264,0.010392281756407627,20.927604439623266
-8.596344131055858,0.007709323362812291,-30.53733783305446
-19.855520741132647,0.011932048393415697,38.465340109152805
1.5187918571285195,0.022254307877876862,12.382141585430027
-14.374170860347924,-0.02290758205703486,31.327806553486397
47.02642097902029,-0.02435284036876402,-26.32360226677698
-21.494149518213923,-0.023635978010823407,-47.917797451103525
3.5249614985731625,-0.01397913169393948,19.641859764732814
-16.897918944745363,0.006337649878645893,-31.611773132597442
-21.49397721957739,-0.011672935235114035,49.84568174421214
