-46.703467662114285,-4.5008735481699915,0.010643045292524508
16.979011497529314,33.068580478677035,-0.020216249450416945
-10.265127051478082,20.573921214564564,0.006938165101315237
0.3695626169154309,26.900276496806228,0.006012094481595721
40.20164656668689,2.2110604502233713,0.0034496043919032097
-5.37783086037421,-26.105325259846047,0.006735166461763274
1.507088137669058,-1.9705914213579945,-0.02046260524959185
38.33808541482253,-10.197184829173644,-0.016218481534619265
22.023670673325142,40.92365905198983,0.002259027906965288
-17.346505824239323,35.363189759801244,-0.01465555051495015
-24.720264123610736,-5.62709848766152,0.011444204029879237
7.875294019209591,11.469301433187148,0.004277541570920862
22.335671297522353,38.36382114347525,0.016275445657911794
-15.510897420317825,23.34019958302558,0.007028257993986271
-15.548923916369048,32.07324951138703,0.01237083731373232
12.787052132204536,49.752355466082776,-0.01535588750830194
21.021673963250024,13.12039245766757,0.0017059592292692216
-0.8937114298440818,-49.26239665574615,-0.00575863697775595
18.66774082405793,-23.777959656043922,0.004382018540266021
14.6952004761811,-2.262537842144482,0.02202908610578873
-15.307940190069857,30.11535990986387,0.020857984711635656
-3.8090394986126768,-6.541542474339664,-0.01861780073402551
33.11834543968676,9.901535184729504,0.017898731554101453
-8.76722702835373,-43.56568843316131,-0.012207172491186885
42.05552832935604,-10.270662194775568,-0.0004511791359308945
-48.936428722668005,-25.434743949680893,0.01028496397872615
47.76439318227938,13.254971955894575,0.008300034570343104
-37.79949169007202,15.236999779917525,0.024499662596034373
47.14849946352308,41.15542450166777,-0.015751423854482378
28.985124357506223,43.264959116633406,-0.018367452657148755
-10.21536300370439,38.205157585965665,0.016873870202077146
-31.275593112843282,19.086929266875956,0.024081546684622902
2.4678234507536914,-32.589399439519525,0.003287002918392061
9.995918102976667,45.299027677295115,-0.0032929874551655795
33.77183322313316,-42.54313562089656,0.017033932108656245
-22.546319995913944,-15.616344658436375,-0.005210200922851238
-44.21089044991966,34.02344036845618,-0.003502240096379377
7.807905409989004,32.417480201365805,-0.007352476682512349
49.437550087736,-14.581934505749864,0.00041888490464355235
33.445405337995965,-31.881733971070613,0.016294334797486827
-9.602758193316355,24.65551977044268,0.02075443163873445
-7.555480281255591,28.37841877485762,-0.011336870978678576
20.047967650748006,17.01933329142355,0.023571868865338706
20.02835911796707,-42.66136874528047,0.018250969068458155
37.38400564426986,37.74706447254081,0.016178861064425752
49.62738875782179,-1.688458599253451,0.011071814468775837
-11.940861223664825,37.64661164230694,0.0002850179328898819
4.6004241256088605,-1.7809391115176325,0.02249590205827278
-22.64299903625455,7.532507430630588,0.007293708976349421
19.59561457101219,5.2412567187109715,0.004533092841857333
28.518243232968175,32.234700965176074,0.0043013202858081315
9.318896554736924,4.114951663869363,0.007007623305460023
20.62725095294337,13.301219543282564,-0.00642518858762214
-40.809888322459265,12.056142377628163,0.022694812900367393
4.988473576264838,-5.783427428541678,0.00198346065893934
14.549184658119628,-20.20588995499547,0.0063807500864351
-6.698585992999497,34.69097550309807,-0.021869518918845556
12.897108662199088,-28.044160159324992,0.009290376302019475
-41.371832397455435,-32.141380892739036,-0.017475717473076597
9.985114095183846,-25.252767551013587,0.01236916294734021
26.97877711519682,32.5140497653489,0.023619955471152067
48.745188811578245,19.237264589138945,0.0049756586547371855
-39.31608516633746,-11.321697131494957,0.007004421951503262
16.73189925474246,-3.4430998635631624,-0.0012913011720062303
-29.333618272131023,33.45516682758132,-0.023725476402292278
39.55761109210481,-13.486398747310538,0.02009354572844651
-13.510993324854994,-42.693497615307976,0.024576820233797328
-20.501027142450866,18.93653737063144,0.020319956317079703
9.26002408306119,37.409184581569804,0.009766462049634286
23.738624869004767,-27.10661163215178,-0.016360023488470807
-43.016112276907734,24.345646736335468,-0.018503884348057373
28.698488903515866,-40.39205191447206,0.006855864924888107
24.959531472346512,-12.34782453535015,0.007231105473336302
43.91669471539255,-25.705842630326202,-0.012394384783591512
-48.080299341825295,28.713227261776268,-0.024176563750085346
48.02369876465971,17.497116263921455,-0.014893399559097143
49.13612004082974,2.812875547649064,-0.018964602579693613
-49.836070882715525,-2.5766765513732466,-0.019409439390203405
15.400522219501127,-46.65607467105498,-0.001590931959221959
-11.15367633842854,-44.59787922741768,0.015709011074341243
48.14205113038132,20.90381434647324,0.0020446209535764266
-35.19987033373529,-12.648015951958122,0.009056873144796418
20.821585933145343,-36.788031872491814,-0.01872475740529954
-36.337179820126664,-28.684524304324654,-0.01693789818572085
22.225465147178014,-31.531402893381376,-0.022162911471199864
-48.390687588291456,32.16752038955319,0.0018930771262874457
-27.69214268618918,-19.99218880980218,-0.008762312057279825
4.971253720809855,46.264152087448196,-0.018637468000201846
31.836090038566795,9.699882926900926,-0.0014656329167509023
-37.16077479876027,-28.75619693768263,-0.011808581280321667
-48.922685898239074,-45.33862225905425,0.003951998555703003
-9.869647422561435,8.334317561545475,-0.019056289077156226
31.487869691034163,23.65193209676997,-0.005615636169298954
-13.811478228802777,25.65557211843057,-0.008057574246798371
26.500052920408805,26.7606313261508,-0.008038923988648323
-14.699689699632856,-13.202604474000367,0.0017148112592875915
-11.77556654732529,43.916306993410075,0.010615154709222079
-33.939735326532904,-2.1694592743842662,-0.008205928685393351
2.505222237030125,7.739817080280531,0.016420966481523344
-24.571345452020353,3.950765216168705,-0.0042189687709893245
-1.2602684231287071,20.65731719441392,-0.008571512493548084
-45.514532266230546,30.99362184578655,0.019541871924908465
-7.511660600125147,-20.534340860074053,0.015584962343737817
-19.602823206716668,32.27843279684444,-0.018204247439200478
25.614919281717945,-43.876648388550386,0.018162384126952785
-30.363571812813696,-29.537137528626122,0.004694785748855013
-31.777466617151262,4.602146096547557,0.002547614365118238
-23.89140126349931,48.53724648332545,-0.014648551928338749
3.529272532821956,-23.575223470795702,-0.004894701893143016
-18.63857176574818,10.312591240461934,-0.013227173722055875
-39.33423156670798,-45.689115893441226,-0.013511665795193107
30.695375353525094,-40.440722776144035,-0.017168824617481905
-45.28359738376011,45.65039805641064,-0.020713838691562732
9.097541893203257,-7.776946613243496,-0.0071506462804663065
-33.522769563928776,6.72542640588042,0.020502469293795976
3.184110881893922,47.60464918688601,-0.021974993141227757
17.798213529304334,43.38902765229675,0.02438608297314515
48.882561029942224,24.76910758364488,0.005212731622174293
27.7666228911782,33.44255060363082,-0.021777657112560828
37.952588043560624,-4.429998081393904,-0.012671582810336741
14.131677151623904,-8.379228825069,-0.013859228996343754
-14.687495247543424,45.8227266171606,-0.014634767545057154
14.880350464765073,-43.453595270593894,0.011931081902782574
-44.23685191006744,46.79122279105488,0.002738004480646844
-15.477071281099889,21.54959537976248,-0.015540626055066304
-12.456258055211165,0.6642368582012423,0.011179139557460346
13.060451321481914,16.701540993944207,-0.014207726003092287
-20.42843666455889,26.296636897329748,-0.00867586900997774
-25.844757032585342,-13.421382285137028,0.01580716852268984
-29.52684602773723,7.559098807509265,-0.012244475960715234
-24.454249066165268,14.852326167334923,-0.017735114388426506
-1.2518207713178384,10.494733922206201,-0.013662780252562557
-44.7623081676059,37.734362285415145,-0.010885612957333875
-46.18778287722702,4.098701873871249,0.010269989427928394
-1.807383198346578,6.348599107660512,0.006528199791156472
-3.483543524158307,-44.23972705080853,0.005377534926603211
21.9802921332207,34.52801287979803,-0.018231193765480238
-7.1765838965413025,14.689174428576706,-0.020764495522228428
40.78472868193592,16.112945802566827,0.0175705614283135
-7.87632562823233,28.280046622375238,0.006797131715390724
-0.07135242503684225,-27.35948124877733,0.015573332427267113
-14.647152517281192,4.6781128858980665,-0.020582053311679234
0.22784423614379534,-36.7452066655398,-0.004276053564062344
22.457501950652684,21.91121384436046,0.014523896456960714
32.52137778283442,-20.605424369515703,0.007155603347506347
41.62100241426258,-24.98802492583384,0.011159711398433053
19.536000912466946,-1.880430741325135,0.018644407417720846
-31.70467762107888,9.852850055445941,0.01910905979416993
38.723056316034416,-25.201195761975338,-0.011829763559769014
-36.59357391416424,-36.86026470572086,-0.008157742350100982
-18.372383419789585,18.288777931263596,0.020118419200945502
-13.810861636518403,-15.234301993883548,-0.016989971355022913
15.301753510846922,-29.221452290349813,-0.013805155013485915
-46.05263494734461,-37.13026579733945,0.007488392586571642
5.742160733393774,-21.623821179523496,-0.007700291030179957
13.998720745304198,49.95626152727357,0.007196350235994332
16.631429247921687,4.312927394224516,-0.002703198273045177
30.072534135939776,-25.785258022489288,0.013706175971532723
49.38158346690952,-30.469723243401802,0.0058604299035779905
-0.17338696118622465,-45.557313921688326,-0.02000245508032955
-34.22446492084836,-17.866832226723396,-0.00547128070188254
28.296485799846067,-32.53165969882031,0.011635621202059257
-46.98712264665943,22.25488008582211,0.007582802120106771
20.465806416592244,11.484301111384987,-0.01431796305686922
46.07233878466246,10.547047448336322,0.016983169260363015
37.617992442742676,41.54991746990909,-0.004747946038638602
-18.588597499653247,-42.08431253831988,0.010875442546638518
1.0229949746232379,-25.325326555561766,0.009508114922853417
43.14101914046353,24.32915342992004,0.024224387579362273
-3.3303247942943273,-1.1639349905440355,0.013687953754209607
14.545690829932312,1.4458510129270934,0.008123459786188635
39.098837216327,16.76502318909958,-0.019194890384890625
42.564808063922285,9.665808857932689,0.0051361788278757314
15.296342176083982,-5.442221514687731,0.00881813107463486
-7.596923074759069,43.742389862473175,-0.016274993367584818
-44.01720471452639,-4.100220804720621,0.013329569554273536
-43.51177167027522,-43.71663487736211,0.014590047622356953
32.890948871711544,40.380889114957654,-0.006105501191302876
-40.08342651176939,26.280271485112877,0.008806338609057489
38.18491084317485,1.0876137246890636,-0.0125840299435305
43.8993130260009,49.327313824041,-0.0013163176984551835
-3.8574125250505773,-0.5755813695444232,0.0014936353726229742
-37.21868996930455,42.860260299509974,-0.012773397911935314
11.781303379362676,19.49850327717961,-0.021431820088048382
-15.746700090104028,-35.68510881072152,0.021528444994275635
-19.826622463934363,-23.376676610860937,-0.012565488293399686
19.625162053183516,-19.32270356986956,0.004681015709200258
36.58680091442717,44.68496964635298,-0.00025837820184163723
6.515720776405253,27.81322210548322,-0.0076790957081243685
34.024091778916755,37.14580418777686,0.006710851235166529
-10.432415998448697,9.3575606100923,0.017910371079452043
-26.041263392006453,-21.09427044727905,-0.02354365192438751
30.222199935544154,-14.180049060147645,0.011198623351855168
16.10804357752656,48.330647419124844,0.004986875037138183
-29.820774220243983,-33.738508369286755,-0.011573307418211493
2.4259411387087795,25.724254972988533,-0.023129686539873524
48.04692793327618,-11.277295837314362,-0.014292093057633987
-49.6465467378139,-7.3435252889354174,0.012049777958432907
9.148074500176072,-47.58234680515467,-0.019913336863034294
46.453966689137076,13.746871958704062,0.019988287793966428
-12.381561024585551,10.38503122211472,-0.016561151829409905
-13.963884885259134,22.96023713769793,0.014985727868719594
0.25495047439964935,26.586144342435844,0.02447496615164721
5.296893984573067,39.43520034019775,0.016474831932840488
33.760146992601676,-43.40287449918522,0.020844277672185288
-3.1047383575815033,48.71521524666427,-0.02440446317979258
32.277689950287154,-12.345060872713546,0.006062069716388459
15.378890114180365,5.342776239293443,-0.007461925563029027
4.151839909221877,23.48517050049348,-0.0006560546266752912
-39.97167923312852,10.51349776925904,-0.019623570467319808
-6.067900231872713,-25.32495585824669,-0.002954585341849742
-16.646921386644728,-49.13503740749404,-0.001237541855307122
43.19722396261231,29.18964079933697,0.02182793299202524
-44.345656525623745,44.5049554919388,-0.023984902928434117
47.42277799942134,2.9147811150520013,-0.0229519326675853
46.717461761859866,-24.790435943688514,-0.015702616096328604
7.002778789759013,16.82348034241528,-0.015910188793619592
28.159152195243493,24.37826876744863,0.0030479987354742125
9.438870515966926,-9.538513583787648,0.0245211065207427
12.022395092022109,40.54372095034249,-0.000641225839179603
-26.132261570957226,-12.124975078252653,0.0018992272767937128
-46.56782202469319,39.64291103657904,0.012691553819980043
34.02028286006228,-13.17555850519959,0.023510021578937855
-23.435005532553642,-49.93879366428723,-0.009457488638522894
-2.4961628225292003,20.21431163680637,0.008440938571653678
-18.536837863664445,-43.50129606028867,0.003473974168460049
17.953143776057757,10.508593380373313,0.02425048574830234
35.001881789679885,36.87314503121941,0.017048098406872124
-4.97713250435752,-23.114985634759556,-0.019479429109058623
17.371191423931563,28.330882616616776,0.0005779947458554868
-45.56424989615834,-9.812836111126245,0.011892601157175199
-6.6473659595270504,-17.612496057530805,-0.007773749228981004
-24.721805400438047,-30.95796693355165,0.0033968400755956182
37.30905335869451,40.66435406804581,0.004586283754149562
-32.049281328793725,34.90806787376529,-0.022273514225900126
14.932444228166446,-48.15308832768166,0.010366570300562192
-34.587499430374876,-18.037303043996012,-0.024223935050544362
47.85924934360317,-12.496264079875907,0.0010637090674939231
17.006338459391642,-21.39993435525107,-0.020416019954483458
-46.4878997586989,16.236724018253994,-0.022717892716546874
-25.40601781884724,26.037189645678353,0.0023727011629881105
-26.001567543414172,14.029881563880636,-0.01702819519265391
-36.41772595031597,1.8713710618670802,-0.02184332437085589
-10.16567037581109,-42.03900678235903,0.01522625040643439
-0.05850104780527943,-12.988043908097026,-0.0007460515086395655
0.6654052233113958,30.82854286249831,-0.013865571720366815
-38.25928728164809,-40.79602362580419,-0.009941008105961914
-27.907359557887133,15.178139733741318,0.022932476785570886
-39.494271832657745,6.147186873971869,0.022031975045366456
12.644650911548595,8.082498313424743,-0.016646518070573785
-41.848353127443794,18.47863155275212,0.021206521150090994
-42.360248078171146,42.81675089488493,0.004571282406845862
-23.30938150302453,47.97515660002311,-0.019094596991385063
-9.996922307299485,-46.75130854453822,-0.005432722154455404
-43.35482729447318,-3.6425906600377047,0.014019620925277657
-32.422341200771164,7.0174831245009415,-0.010886535648476548
47.483828076407946,23.959971588711724,-0.001942361952429205
32.28009704878055,40.558904018613916,-0.01637754348602426
-49.00940751270212,-0.05702390162350923,-0.009043571091298119
39.00253657097636,-0.5429525565836428,0.014464228876504587
49.99610479001295,-49.733084499681404,0.02077437933030455
-17.36256265357087,-38.69174977389945,0.023791399714718824
13.399744049560383,36.06584238392266,-0.011532045390748358
-20.74146103009815,-36.237564365131405,0.0036177199003694753
-27.640572432108044,6.4013154740960445,0.023240419794545934
34.58290289565413,-41.99465821258653,0.008490338213262325
-22.033599294085437,42.93346512933033,-0.00820600121748807
-28.41708043224832,4.716379928802148,0.018897573775359
-13.539570175624036,-39.30651325303405,-0.006690646773713178
-4.15697371952718,-34.315227024745056,-0.024908367619563384
-11.753447940218123,-8.530091408174265,-0.011822909537244436
29.23022024334459,10.103790350772456,-0.006840936085895345
30.684509833237612,-22.589250803824722,-0.009607513259735434
-15.657772411233125,-18.08348183248485,0.022294594495156417
33.424416083991076,3.840091931240231,-0.009799140368988947
-15.94948156957686,9.207869631485941,-0.0010690101577200684
-22.62572985927047,-27.645683107979057,0.014465743712604368
-1.2698932087158994,43.24279312359833,0.007435581552941127
-22.63482951273569,4.851414493653749,-0.022314518850005762
-25.96616241122478,-11.949914490573654,-0.007537084059371781
39.32565094000984,-3.2543943822424737,0.013470405307144821
5.562718642365695,-31.49924170995523,-0.024843420997411186
-8.847621205674969,2.3468636124899334,-0.005005890095636949
49.91776967892693,-6.6259232554535,0.006020130008347578
33.33771462620497,-9.216906694826697,0.024584178414113263
-27.071895397107383,-33.92764515434538,0.008898808328158724
34.114461642466765,-17.53253840388539,-0.007495651725151521
31.234152076134777,21.257940219421798,0.013614133541291089
23.653892382707383,5.826563804446494,0.015496902954338872
-26.949394222438105,-20.18659996238289,0.004075993897708463
-11.686253985920494,5.9467408426123995,0.0014606112212395828
26.909060657967103,-45.071080403572495,-0.023648123807492174
37.219124270110854,25.14435435790152,0.005026105444366602
-16.719472822667647,28.287757760156055,-0.015291366613092562
2.511949246978517,45.31317633375585,0.008648763064553013
32.022903442821146,17.826751224858754,0.01773347392167334
41.72717047449868,3.128064721109766,-0.005578259334463136
36.315430346070755,-48.935017042052266,0.018325602429771895
28.763072273680095,-34.58704363151275,0.015818542259659403
23.95071696992376,-18.17588066321285,0.009620193818869492
-32.125013799912004,5.9803587431539995,-0.0006953547294494752
-12.266676323212053,47.07282488092291,0.00974160430132403
11.148439578387581,-11.343800034773267,0.016589891750172725
-18.700339577383208,19.12423520081643,-0.0158487743219949
3.1695796220692642,32.63540820221762,-0.023616383909764074
-21.376745209496338,40.14391896455656,-0.006121534652980348
25.159307510568837,1.460426807144657,0.010895324483395329
-22.398495153205744,-41.3903749762776,-0.02410962591078076
-48.24842157936439,3.3340669008992236,-0.024235858004690754
25.04291852425314,22.822786129176734,-0.009710571074741981
4.865657675232171,-44.55609998993767,-0.0025126863205540244
18.875964305501086,-42.26815362370607,-0.021419060412874658
-3.395253531348189,-41.38358415049355,-0.019945533579595855
40.09057646294207,42.664590953842676,-0.018217253607845898
19.54617387721565,-48.54024732855435,-0.0047173751103416865
-26.904737944906685,46.83568173729235,0.021948336324281857
47.91558241238157,-41.02076369890053,0.008630007425064215
29.78273253920098,26.48235999276477,0.005337091286596762
-13.372596132133175,-45.702359870916176,-0.013796222128758329
-33.0566580678237,-12.66409668215217,-0.003483161074128993
-12.42443780396605,28.287113891092858,-0.007681504236427418
19.625191039108387,39.14309500892867,-0.01079493965122379
-1.9322245767775428,-32.64845625316993,-0.016829181107466437
10.406939453651923,32.26223287515947,-0.023073559145332503
-44.84216880324108,9.276706262048094,0.012629344747176578
-19.97918673824862,-46.79999820804787,0.007203899842173379
-17.55875891194809,9.193437645472237,-0.015393546251365221
-25.86284599718116,11.711288805637246,-0.019841794246356893
0.4979891937217289,-19.372003283359906,0.01923962783104441
11.982073089602707,49.79386738664087,0.013385212279838236
3.1971739723101393,29.11140695752647,0.004472801315449859
28.85121718090565,-18.414310822462266,-0.02216797911688196
-38.84904833386008,34.382525228069554,-0.02053186020817717
16.91122876066335,-14.928397340915645,0.01852424602723257
44.91810663999851,-14.568023668857819,0.002586511144964908
-16.98102759184399,-12.008913161326099,0.023841422536846492
49.78244910400336,10.258802036527861,-0.021677959923912016
-48.47538820552124,21.166733813075638,-0.011438396525882834
48.80731766066292,12.462135627374373,-0.01553233991236191
17.051293052647566,-2.7354003498891473,-0.016277141611268503
19.077980742132027,-22.398879971067853,0.012410705328299264
48.743617076897394,23.066558181961867,-0.017006234423175823
26.65494859379905,-11.941938433142198,-0.005208340953421688
-1.313163939325598,-27.071604577980104,-0.011731574627206594
-32.36180646495013,33.097543517991994,0.016909293606020726
46.19839574389975,-17.987492661759177,-0.004686083689062776
24.967388081201094,-0.7538527630481013,0.0010544275599996995
48.77611433791968,47.931662571637986,-0.02237555149113999
-37.4559504399014,0.7410098166944366,0.019559783481509378
-30.405872826764103,-4.653923235158416,-0.023864198077577545
38.53842570989235,-21.42816511671819,-0.022329662774512066
-38.28556226867174,45.41827986609363,0.003786749084260195
-19.63036144790291,21.051113446903614,-0.013922357550487086
-33.59972514957397,4.22095590760636,0.0037209862582635207
-31.076818824656904,-7.216716140363246,-0.00842959575696925
32.15033824552246,-46.79445850553551,-0.003626515416717803
-19.322887069877993,-49.27022039268301,0.006485984076264474
-2.691774284041905,-12.064705894019312,-0.001223096685964143
28.240686294917268,43.977017014206226,-0.013958257810281278
-8.238858460129386,48.083744740857824,0.015177210319333105
43.396362200652376,48.8632100246854,0.0141817076110713
-26.62112145915576,27.329866026555422,-0.009497481999351111
11.238701016070472,-49.39507213890322,0.007673459131582849
45.79020987121996,-31.55735054536618,-0.012908022503121841
-5.708656586714966,-9.290302783916772,-0.007711763387214448
-28.04810623464622,21.09615083770278,0.005944379812829852
-3.341562717519622,-15.499421247484172,-0.01099107333142373
-40.23251142387062,-48.759200428343554,-0.019363168764725963
-48.87466098641541,18.93000807892365,0.017968732132174113
29.04939990946967,37.81191878921889,-0.023662421318092264
-41.775259525333574,-21.707911914598345,0.016100639242800224
-7.490536492553936,34.39837996896465,-0.019121609448300804
-31.174613824414045,47.19744149496408,0.0036587530185498603
-24.303564798006317,-9.326282833852083,0.016406858741736426
-15.978227395177782,46.770437502173706,-0.006929728051652453
-11.282728352833594,-35.30018148601918,0.015310589070423396
-15.651814888748696,35.92684607293374,0.003338993746897445
39.531650844843114,27.292729427183545,-0.011518317317993005
-41.85924935816752,-3.6435064838540754,-0.004645299727810876
7.35539145396055,41.565771373576894,-0.0019027472245079884
-31.10942509763719,0.03872739150434512,-0.014259519034886897
-27.12309261441583,33.40364037174224,0.024046659188910732
-12.885558964535605,30.271346804072635,0.0015442476013963029
20.622555408358636,-36.61615393792469,-0.013978350121669321
48.254325760659654,2.840765212718374,0.009449585638598046
40.50875954989306,-3.930587764453108,-0.008377857250750406
-37.74910883522874,12.15822660259525,0.013363968439309808
8.530455688703377,17.287692873601898,0.010528860059947937
-31.200209855364157,-14.937087853825467,0.013406993914869922
-3.418675776995393,24.202069129602407,-0.02385502492177692
-48.61259359715543,-35.52494917936087,-0.021564712191112945
-33.86551515856485,-40.34039076484454,0.006305406249083864
6.79017175967536,-25.681525128547534,-0.011078080558712206
-24.527319852110395,18.110320740944502,-0.02418535581098082
42.19515695590886,-31.790227090311273,0.014282279950564115
-23.00155280073133,-20.452017122064415,0.014605413103263548
37.509404993287575,44.439136676592625,0.0011502083835679307
17.284364528899033,-42.20208977136879,-0.01789751786512414
-42.57856418484997,19.99069292329824,0.011835047895250347
18.381746895910226,-0.6967039130162078,-0.02038618067224046
15.526191307235976,1.4688394556981592,-0.006745726948974535
42.63286156595406,47.11496566479053,0.008131563532291781
-39.987944754128876,45.84774273255468,0.0035876375421326698
-32.44239101683001,-34.17738549560694,-0.0045529266126358055
12.958120183794605,13.786524890121207,0.013639946040398351
24.446472064663084,-4.7594616289307154,-0.023401349516859744
-2.6068072367720987,-12.631868554294478,0.012669046699579412
27.242178851385063,-31.94191399169881,0.0241905213714574
15.93002635485658,44.83350142584891,0.008130646321969942
-38.509224524662386,30.42736942795065,0.003259114349178121
49.684135544032216,-29.341702629456513,0.0016824507946732008
-21.357147375075314,47.429619696177554,0.015278706928540171
-41.28018478284731,31.218327081773197,-0.018991173504422382
0.9628152946296069,-36.25394623902104,-0.012944808527148766
-38.61193490017581,-34.10269328346076,-0.0183948320191305
34.35100900000599,13.123876205666939,0.016667931455322554
47.87366880887333,18.706509497465888,-0.020618287202083776
48.68766703525725,-18.398806951353652,-0.005847127221960707
-5.727899683054005,46.62344464236007,-0.01857400809770651
-43.72369790444763,-31.09477630465147,0.02079558254258143
26.446921239353117,-28.597774738623016,-0.02308074965804849
-9.298774420184643,-16.287582494400688,0.017556286111023604
26.36616431139433,32.488589450435896,-0.006782719787094577
37.346170152177436,-49.98032351658248,0.01339098605493707
-35.5394895076389,-0.15557429657030752,0.022510040883133624
-44.515617277106216,-39.73449614427753,-0.010913011639109361
-32.383088581865024,16.0103057974586,0.01883061196233917
-25.307091798030832,38.279325723583185,-0.024363055091085356
31.118364413965693,9.838755929079987,0.020767817257882626
9.611943684411642,-24.82522193755221,0.007166019428049293
-46.032897781268154,34.13836026191835,0.014753281989756346
25.650493280671157,4.144342789297852,0.00817444893586889
-27.991577625599295,9.939437583803802,-0.023623233516708704
45.462289654860285,15.45222286450722,-0.00334017084447933
27.14784130126945,3.078681111341865,-0.00406339471079269
26.266961867418274,24.380547580205985,0.015997535367260195
49.0851785636453,10.02150293388474,-0.02430588174311528
-43.24030512433994,22.136661237163153,0.016085241926730734
-37.04392300370716,42.325963240572406,0.020592886797100876
38.04421107040832,4.709060246888718,0.012531551017467023
-10.510996965670024,-39.13160541772174,0.022774229217730188
-0.1868205539240364,-5.456326732260152,-0.014291584564380228
-22.310519754061385,48.66305937211048,0.01186712994746033
-32.412965646523276,-35.9342732496108,-0.015388138377839278
27.788826073908098,15.793998296738664,0.0008040463218041416
-3.119768207617703,36.276307355804946,-0.016185357725795595
38.44766942562346,-1.2089721680224912,0.004521690660319804
2.653633310790994,39.60330772328989,0.008464857651545463
28.8950372405571,-30.228182637438582,0.019916432650571997
-34.11137415609893,5.947075158696556,-0.023695599542869816
48.312222369971224,-43.166311191929495,0.02393564253659429
-23.524408973253486,19.72675899046517,0.009399620285821801
-29.41920083225906,-33.607838258275095,-0.0003844716498063276
-44.189481689194196,15.307308049892129,0.013568737677037833
-36.91634104645621,39.09841260622545,0.006557480228986404
-29.026998299210803,8.23770880367747,0.02125312648599704
-6.443309936927797,-31.503766264768483,-0.02368595369100045
16.407464102754574,40.22778251955084,-0.0060131609386396175
43.4823296815527,27.357967884989492,-0.012470392954124105
-12.043142878648318,31.580340772501273,0.006302257082898374
33.28292055899202,-24.590355576158597,0.018868501936875733
-1.2292481578257224,20.86780496241157,-0.011711335907372451
-4.336861621535817,21.626501473109442,0.010963142492007624
-29.312641143554576,-26.306370186542395,0.003397231099630294
-25.472590577542974,4.961770569832183,-0.016150341617219927
33.3411694830597,5.603489993286303,-0.02268638053726989
4.643769929266817,25.691835951519124,-0.0075793976222747195
-8.734317041667296,-7.338417404961497,0.00719921614523731
-21.32409094645866,-44.68313906284522,-0.024062822115029706
-9.559262955446947,15.257510730598398,-0.023893057296811893
-31.095399803924227,12.936191225731108,-0.01674142820914687
45.06441201293437,-47.777030561570086,0.010827600244458897
10.80475682379668,14.916863542145592,-0.021490719421144906
-16.18620786423284,43.659041287422596,0.013755503138229729
9.737539242008864,14.28283234222701,0.008639246855878586
41.148528984644045,6.007437203113554,0.011215886405970946
3.439708960340525,10.847257228201435,-0.008856456329366425
-18.567041848722432,8.732105096211718,0.005561469359913605
6.000588085173263,28.568271117646432,0.010315780554145067
24.614180654185617,22.136014397140457,0.02389507833481907
16.40522548705256,40.50079092625239,-0.024773951193902556
14.939582902844336,-18.02904387921327,0.02006722713434146
2.4776769554107716,-18.202803321538386,-0.015209422630053971
14.619274963600049,-14.733821324804353,0.010851277830540393
25.867157438995108,15.729310557186267,-0.012607129173699784
-3.279995025218149,-41.464440197853,0.018887732861021356
-33.12435670914519,-22.288907525359935,-0.012899792796029735
31.429843299232047,1.831290201411818,0.021672110739780225
-35.8316570093128,-43.99471157791086,-0.0010481236858027494
-23.533428282655898,-28.37557661158785,0.008233640975989664
33.446610871236274,-48.63162509652137,-0.009985922202968761
-45.01755203547382,36.40551126529455,-0.016535532891962402
3.07850385614028,-23.738011044952046,-0.01958643074338706
-31.65552928624733,-1.8806863629194268,0.014176520405456992
9.055141565289958,25.645154789699447,0.009942059678866327
10.897527835689388,-18.293234786865764,0.023143362702052056
-13.310683004346444,-14.065570007488773,-0.008278181935420705
16.332570105366912,-26.07725752581794,-0.010132615398461099
-4.71380745467205,-21.407942057146823,0.003964344372507634
-40.596480684672585,-33.397236137746134,0.022542488907240664
-11.489356403836872,-48.84247247564796,0.01660834283316453
-32.74721290500764,-4.5394652046317105,0.006886460835210342
-33.61649683488473,39.957301053836645,-0.013029239394393783
-4.711697275111739,37.87357110014554,0.00784327313983537
5.948321953939761,-9.747145176598316,0.019073847413084488
-28.381231303575284,30.157485120113094,0.017766404343981905
14.92745431356829,-3.684005564937074,-0.009090265701946227
29.606897659780813,-40.89242285153907,-0.004285903972883677
48.77686134775483,-42.87286261749904,-0.001297458437517763
38.94638558277606,-28.941413193775823,-0.009654085728209555
37.38561778352333,33.258792261367574,0.012946081740735714
16.265943137143964,-16.856421081677084,-0.006196096026317037
-24.37504277851651,-42.101485498267365,-0.0069636533496891355
-14.61620991304656,-18.805414669149123,-0.019095439651165537
-14.0437904406026,23.94153199964974,-0.013214564907095756
-4.148117656318625,27.855858805016055,-0.008093419076071664
30.592171336283442,40.328178253948735,0.01730934096065579
33.78341408554567,10.849227055689084,0.004782935849716667
11.101645580087435,42.86257407166592,-0.0024064271016404834
16.224261833344173,-39.08680166334558,-0.021200550053715378
25.274426553321135,14.462762240823352,0.01760916699655752
4.656603945986539,-8.530780654958306,0.01200879006160014
43.03162237447347,-23.045104858139897,0.004807128302374085
-42.90343229115763,46.57665148744327,0.002869327241499041
-4.495850060716421,11.06090279291491,0.01984191467967778
40.80335153815304,17.961054464671363,-0.012101361870995982
-10.362098389342393,27.526804579023562,-0.018302138129986708
3.9827477037022305,-0.5759328504322951,-0.019661218344451743
30.863472534180787,-9.498066116438729,0.012162748933507286
23.224624170951458,39.588058309280854,0.02069291467991321
-2.109480162851561,-18.902246296882574,0.013415324856666862
-15.79153436841029,10.50802362804962,-0.018120584760452585
41.52252531357867,-5.678476924649232,-0.004548617896594137
0.3786011180749611,21.009394648147975,-0.012273408251854818
8.8298150869093,-44.129224508968555,-0.009475461465647145
13.932918478530397,26.212556837043948,-0.02258336327590753
-5.817447740036421,45.37502664703899,-0.0037950706832214735
-46.66173000690392,-1.7048208458975722,0.006897122594960885
11.513524960118424,-29.803783595459155,-0.016687999764546685
-20.48659782540473,-40.04595935945944,0.011927808640706604
-15.316501837261875,10.71103662784921,0.010776921393700366
-21.39328499337857,20.380120249690236,-0.004954365079650459
28.325007972679074,-10.179974620445876,0.022272823863607016
-25.255749251898674,8.410113705029268,0.014310668701599166
-7.2046874312199805,-4.272391806283828,0.009943503796291067
16.052187024977826,11.387848893868956,0.0034741287715408346
-21.308037179536754,-22.590777417511852,0.012373188840690066
32.916516909478275,-3.9166257513891267,0.01627606333816769
44.23387560073637,14.180542186750273,0.0017674192214277296
6.454773178153829,-19.25849729289929,0.01661851872169305
-24.8235824600462,-5.3020829145355535,0.009988175799893376
17.360639348738943,20.271723466419488,-0.013302116254560736
-48.136635567676976,-25.792799830312408,0.01764458188483052
-44.21726741912268,-14.392871202874382,-0.008816039866637034
46.88210027927964,-18.587339866774077,-0.01822521647648594
17.50853600786286,-17.59550237792226,0.007079705219707098
-5.263567631206946,46.41789839552976,-0.007990736085807856
22.719798565117074,0.032520379448676806,0.02041494467816978
-21.69457437782951,21.666663124351828,-0.0040833743950369
-22.8937672252024,-3.6012393087109444,0.003096422408598771
31.726087945703114,-24.44078318287112,-0.008621029342823196
27.873899370347516,30.318981009505677,-0.020885656810879574
-18.1852038170064,5.38115007824387,0.01358033563659962
-11.535760869281553,-3.2495975874520724,0.013994251331193398
-8.779204011905371,-9.120103791643487,0.003761862048648073
18.15279550471172,32.03321389407674,-0.005211992126392791
-5.019012364472289,-45.79055278327816,-0.0037575334386268366
41.18970953908428,47.493271290911565,0.019712317351809304
10.141201720794648,-13.494114342692079,-0.005337487954691956
38.02652995952616,38.19658818134003,-0.012647687328102543
40.78380620412776,-14.083152697430926,-0.012415324855824762
-10.074864229394862,-44.694393311919065,-0.022077510225303316
-12.019678527993719,-31.91160002983412,-0.010024846901796681
29.997160269719174,24.753916153407317,-0.013808335940916794
-18.620899348991816,-4.645187337345703,0.0004237016922662429
-28.827420858829157,49.227942877082384,0.013501021268791373
-20.63423120071819,10.623986248832395,0.00687793781874009
11.63352407965823,18.167186277372522,-0.015915399075543887
-38.078272322353754,10.148244796425985,0.008421504233509278
-44.83173393174471,-31.47611760123492,0.01895203798766456
25.6677107219039,31.679517731754814,-0.021567468571361728
-7.604143304610474,3.0570264085064878,-0.022760112414246872
5.204198343650489,28.00776357730645,0.018329491697284282
-4.515813485812124,15.140815442094265,0.015238935047506702
-26.349907359358905,27.532591247315693,-0.002375771625855217
-1.781581974750864,14.450307816451541,0.008360130783371368
-8.113996911792768,-6.68614988205568,-0.021411051241287823
-17.986918819939234,49.9920612138709,-0.02367902130843604
-33.26339930825915,-9.536538573996687,0.017334076270561403
26.936651104515775,-17.908630193618656,-0.021267207282326256
39.56090521882038,43.74510023706419,-0.011429959168936445
34.06675764643187,10.286728205484884,-0.002294824011925857
-25.7752259594082,20.037278373914035,-0.008421046845655845
-45.00923107144694,-43.494897454025136,0.0231263935145178
18.21187006478931,23.93095121715045,-0.011361797710903688
-22.187392671397465,46.802473081426584,-0.024824234736457097
-46.793546272402494,-33.8627480146566,0.013555011237733415
38.701296769765264,-29.98946143464496,-0.024869378793568687
20.231426196955596,33.21412545299937,-0.021526707213731917
49.017617194363254,-11.864418489238595,0.016032397093034133
-43.413469338776466,-10.019801536632599,-0.015170266267623252
8.378933487605082,23.254862900124095,0.014229923666944304
20.336356561751145,42.81438740825068,-0.01567377703459806
-46.13895054846768,39.60983535405869,-0.014880796882516513
2.0222924766216366,15.71553251602532,-0.023633278362125306
15.319424687783993,-35.33465370419636,0.0024238394992303347
-4.231929124590053,-31.11290466409251,-0.01019000154156673
-29.14909194846327,37.22031821281524,-0.013585383551574471
-44.160206420332706,-16.035292179317715,0.0041075781534940965
33.6684628703065,-25.448635948567212,0.004741647219655448
10.243184567291344,31.573033347441097,0.009638704751591495
30.345745188817105,30.052121128407123,-0.016693686293810198
-15.23818100420933,45.21535009004887,-0.009651051264370748
-46.0209519007861,7.46477712927495,-0.02261772535612528
-30.12508988128785,48.30547284514792,-0.011650913439369321
-44.752883191573915,-35.631824388127264,-0.0027389401842980166
45.73611906008696,-14.47575256838082,-0.021503293430787447
-31.79158120171658,2.3909586904850997,-0.002494814124194021
-2.0977573584430615,-47.26367442772129,-0.013925538481132156
-42.54084001962326,0.5584239595769063,0.0018987922310728447
-25.39417316832867,-46.859374418259684,0.01978881322182468
23.92146562238206,-29.228326486560043,0.010512560950285535
-4.24748382678041,17.809729955711347,0.013310406274248766
-40.670391756669304,-37.82607490570173,-0.020709888399059257
19.319358936122853,-34.488256535323956,0.015140293526466661
21.69859695484044,6.176495380698853,0.01763729587986037
44.18775805987893,-18.76500624170313,-0.010471758319963144
25.163316551291928,15.496252395680202,0.007552793715674334
40.90296070785794,-13.505773942643792,0.006020777045321557
18.89362186933262,5.64300117462426,0.0068025167514357415
-45.19368518431143,36.02782148582517,0.02498271231437068
29.31586164795567,-48.45481207141062,-0.010497928802625395
16.54321068311559,-10.257901889687126,0.0093818259251571
38.83502484678708,-5.252303742762834,-0.0017073276877679067
-12.078442907671786,21.455011287892148,0.016417497238248237
-6.447984289448961,31.725447731378154,-0.005914065402835022
-47.431697106643924,-18.292096336798114,0.004169515993508836
42.08151032277627,-27.30379065302492,0.024084137101080517
-36.19962913006543,-39.75110711749124,-0.009613539098648
22.065807481479226,33.707047955906916,-0.019966771034646093
-37.64863644643323,-43.06981278972146,-0.007494359273332675
-11.325288905263285,-2.008334217768791,-0.022158101667250202
-19.095107121619602,-37.523318691046825,-0.004596151036849332
-49.17644416744529,-28.02375266515307,0.010832894474889387
-37.94534985965756,-35.802793525876055,0.015209301254958889
28.577502363902823,38.99677907733411,0.008104594832087586
43.82035782802089,-30.646471571565183,0.022472237706029803
-11.701531679716524,24.678956481052722,-0.002208776986997625
6.08147516526131,-9.735849039340629,-0.021699387737454303
40.494397451829116,-1.0602647410504744,-0.005439663844529746
41.4925419254986,48.09867852787316,-0.0038732551635899497
31.4337288740048,10.176852050308106,0.019788452211155626
44.367875753941036,1.4188936007832353,-0.017566218659879132
-11.728322585998463,17.050286308038096,5.5401504816234015e-05
-19.169407717696064,-5.154831234489933,0.0004554063565786852
-22.270487140719442,-43.255448550107126,0.01840045298254099
6.847975956319985,-28.150503433617903,0.019629315918035795
-20.14911208296467,-17.477814535737878,0.023926789910290305
-31.795123738678065,16.057526099484846,-0.0017822467028895672
-0.9431967582810472,47.60525618489761,0.011092020006624605
-47.021280759054186,5.158407462796767,-0.022068014143381987
-36.85648591546585,-19.55462409639287,-0.019175703391602208
-1.3078968802339972,14.84906861048897,-0.0021866577810537857
-7.56839330329975,-18.848279697321637,-0.01840926926519375
13.711148375025836,-21.81433284492299,-0.010639644575068052
9.128879614861532,5.084020621504202,0.021113042279406323
-42.581244445597946,26.265918360083063,0.0143058503050396
27.57652271203706,-19.237388135226585,-0.010510524739334127
30.014808023803923,-46.62074075176717,0.022130048330644997
-7.984117611551099,-47.562872029964886,0.019938943542045347
11.86649737565105,-6.86201596736111,-0.016705679984156223
44.354646590671905,-44.61973178904681,-0.024084769140957286
-44.011832996644394,-35.57881736785703,0.012458657436513983
44.213051092270135,-10.559519248650993,0.005685626898464059
44.063644807766195,-17.133762309541332,-0.01691271413163673
-32.515164720218216,30.203004535745663,-0.003602692242978052
46.981613122042845,-49.6440850544425,-0.013522454499976822
22.036996755864408,-13.922619133530326,-0.02031633580130798
-19.81980171246901,-3.651540572837078,-0.021443427222715746
30.770462473246667,10.288827974359016,-0.009757738422319402
27.083984558557304,-29.891847708605322,-0.0027065324278875216
-33.38869960008132,21.542205461760773,0.0002751172064293442
-7.748965891777274,-0.21771191256857492,-0.0113846605849652
13.169241405908451,6.4507232953684195,0.02024434146627905
-44.290045872086424,-15.090902849957352,-4.2912891002805376e-05
16.734632493001527,-21.72132780421109,-0.015890349122671663
4.596334150266237,-36.71469427095916,-0.014058236420929949
-22.260130328295425,41.25953897227197,-0.010612215511470707
37.62294347813308,29.63830684848189,-0.004364836218144624
20.41579604711518,-32.949687735177314,-0.02060186239083636
-48.06526617758552,21.89967611024312,-0.02374131178376809
37.87311256468139,-21.90737751973062,-0.011492173211468143
4.719913760190408,6.294818309185899,-0.023255790368986652
39.10674078980739,-0.08159583268240311,0.011433296660073991
45.452332618261266,19.93327829663957,0.02169357982828654
-19.304849729626227,-10.266068373814782,0.01502437002234832
-1.8810554526009966,10.999554411786072,0.008779366172577421
-1.3854575485043341,32.35616571087135,-0.01639832192759601
21.204039749871583,12.999815907963196,0.016692386935977355
41.62779175705147,13.285739253552478,-0.008139935464497657
15.725876956060134,-32.39438588861333,-0.012195766789755987
-26.174408852498175,19.431926763131628,-0.00025852629163423263
-30.53216411823021,-5.373790351014627,-0.0208799252075417
-39.79827147918411,38.585225756010274,-0.010327251112943959
-19.685931310302283,-19.4130255011016,0.012542987388825338
18.073081999193136,-20.525181420280003,0.00042497749867623225
-30.157394736248033,-4.142419950646726,-0.0049320369234662
-8.424330946715905,32.075107768116396,0.0233265853612473
28.026437925962682,25.966288030173928,-0.010986763325281174
43.53816790630499,17.61058878718714,-0.014099380387142285
-21.739647634751947,-4.52473456291478,-0.0013837318719418581
-2.173747892597035,-11.72887022219814,0.003173480834207286
28.25250072444048,48.090742302934075,0.014633980278810875
5.80928592294746,-29.221178485235544,0.008093635451727359
17.08136186014528,31.213394044577797,0.016998603212118803
43.2987340404993,-28.58576210618259,-0.0014475222706193114
47.89466071027945,-18.331710152573265,-0.008114707623382674
-23.489906696378593,-18.359139955555925,-0.023173644643955743
-20.061476066096485,-34.18514486303297,-0.0154505304866139
-45.0674936238753,-10.669365211373275,0.02230326752702886
30.238379529283193,-17.577387007303088,0.01933875502189801
-37.89254349519441,18.82302396760889,0.004230378775510624
-22.470362378000008,35.008966534999146,0.023968032688112734
6.232834949546195,-21.896995339826987,0.016516491282627034
43.8726284298871,-13.196957216949976,-0.003922431865964145
-48.34549678735668,-0.16330978439560795,-0.0034750556235806293
23.428820784024012,-29.89593423805025,-0.004041630763748812
-31.224190763269256,2.196544891398723,0.0022850907320118297
-44.62946308317281,-23.696920565402458,0.0013924099017321792
-9.370391329741913,-19.943507785579172,-0.010008794626742935
0.028590704192133387,-17.175429680116693,-0.019485772759685483
37.38922271298037,11.071439443771744,-0.008719960727724074
15.069064809400203,42.327938062327036,-0.0215698212104682
-14.304685211685808,-10.94475174202335,-0.02055525882936344
-7.2742503953882505,-36.33788288324068,-0.01391914654170205
-30.46646714206046,9.894175430448563,-0.0024413325330488907
46.665537359453694,-29.548681282447042,0.006863508534416987
-37.93632090412847,21.114478337515663,0.024245272189616196
19.219405419361678,-38.83062471784212,-0.02437817914434026
2.0582534120863727,38.63621034779027,0.009561834487689568
-9.170980915944092,-29.74415405312676,-0.007647566513987274
46.82529423872343,17.352557929654452,0.015321540623856197
10.504728129704276,42.385750057421106,-0.023545444658035992
15.680952885528754,15.14795179857876,0.004679593715920603
-20.893649249592837,-49.05424187861287,-0.0058957166735829555
45.0710093541593,42.07262744014338,0.01743582692621911
25.817509631154422,18.846111666161704,0.017825913001253017
16.71659550492241,25.281795543871127,0.005098417844453827
-42.89914848640248,-48.85163365994084,-0.010120050526054865
31.609620078018978,9.226121644997065,0.021921848335154773
46.001040056369874,-42.35810507433244,0.010460961006145145
49.684413088541746,7.375052821655224,-0.024767171580272362
7.169315842558213,-26.907517002170234,0.003687701311883961
6.061936644468922,-43.75471582694127,0.02063628188662215
38.51256156938982,-14.528690930105213,0.020712827444682412
-7.649780625443448,-7.709199295649164,-0.019056448444801023
3.0764608379569154,-23.26643329469279,-0.022204651248669972
-47.55989122370009,-42.38090042109397,0.0030378409537013713
42.18060586890921,9.724602998637913,-0.0024433846151870157
38.58632700363019,-37.467075213039315,-0.005526137581567413
-0.5381252543941599,-3.1059785819046013,0.013526081833950397
-43.62878389547382,32.93401795232049,0.013797289773108762
30.275015225667147,-14.305588169908724,0.02444929090152921
48.46277749689149,2.381161923877805,0.000327583611525583
20.39083320347163,20.739196177046352,0.01573601952134112
42.3741306714777,11.264079806359852,0.016195200164808077
28.02829965136179,2.5187383881636407,0.02161990149356125
43.2217360713546,-38.52208920024384,-0.021070032296440125
19.268233006075405,12.844315561360467,0.010200955357466034
-26.524146601459275,-11.026206291443764,0.021204412692118035
31.62923069346428,-15.897745635085514,0.019800754814829638
-25.461001581273045,-27.009777747586327,-0.019217988861835684
-44.77456670524107,-13.585473864385087,-0.013966197626349753
39.32637110174481,-11.594965385742626,-0.00079397257031915
4.27436967010123,-35.99704611298898,-0.0022405005476627653
-1.8159313829026047,9.723068867686905,0.02494339856065097
-42.132289651199194,-21.769280181451755,-0.010113110705189854
-1.8535311194727413,-3.462079900252334,0.017297742677519698
-16.4657547442892,-16.72034292272032,0.00047001426670374366
-5.373652805983532,-41.255434474064074,0.02164268351653846
-40.77742880234646,-23.627161000206044,0.006587894703321273
-41.88584189515204,30.529275265719207,0.01279368538684042
39.33205715185652,15.939031750916115,0.008870397036768368
23.60676538843535,-0.17284242589445142,0.019024755829213057
-4.2185539596961945,-1.3359762379673938,-0.0023340924974154034
-12.244395839067664,-11.653188949824397,-0.015990845093061277
47.044687065344405,-16.01219220453286,-0.02465886132488926
-16.832322413734005,-38.4313042908984,0.007661497379229623
43.392375767477716,36.778718682629034,-0.02207340680464075
45.650075494741955,-21.93710361393424,-0.01386597126246652
1.409637806794251,-0.33539186287160305,-0.024243575256101154
32.43404935903611,0.5514560907215937,-0.0002612874335065178
10.260804773864521,-15.279794282297289,0.011452838318014427
49.82748487016329,15.260669740025932,0.021284659246963884
46.60711678750454,-27.630100597832207,0.016318308515631916
42.161119266362704,-11.912891701441218,0.006354439306646802
-49.74210167347087,0.027157451726253612,-0.0066570418737663395
4.140889904378817,-29.858053598495626,0.01569621423325844
39.936572016447045,6.1653443637548335,-0.013993431813537162
17.59819291561608,37.934770063886376,-0.0006811862314550152
-46.4130206835701,-35.56287265761947,0.004064064581905946
-15.374473806173327,27.578045877511187,-0.017563193101296455
-45.91708959137222,-18.704978006818273,-0.022843077477066556
-9.652967393481134,46.818178271692744,0.015727996487795617
39.18340295343354,1.3835807390011752,0.012885164683197788
27.832722102475685,30.475514589140957,0.00875176750528319
43.87063571372616,-20.660403943203278,0.0180316128573577
39.54278682564252,36.41073920958246,-0.009350227732427281
0.6628564324804174,5.225829531158645,-0.010470173378385118
